ply
format ascii 1.0
comment File exported by Rhinoceros Version 7.0
element vertex 538
property float x
property float y
property float z
end_header
0 0 0
1.11837594024041 0.101101851696087 -0.0049972500000024
2.72507677789981 -0.0439894325514085 -0.0569953900000044
3.11668821785326 0.0455506881911192 -0.0069961500000062
3.55006324616906 0.0860378445777614 -0.076995850000003
4.41646518498911 0.0621970489983414 -0.119995110000005
5.24098749617629 0.0524708483239054 -0.080997459999999
5.70212755721998 0.0369637821726898 -0.125995630000006
6.1071573564553 -0.0412466861573182 -0.0969963000000007
6.82050349746039 0.138065633868776 -0.0379982000000041
7.25318229015308 -0.0310774264499911 -0.111995690000001
7.70043983483283 -0.0185873813322779 -0.212997430000001
8.06417020278787 0.0920085924972063 -0.117996210000001
8.83269829143718 0.0545173590948798 -0.13799667
9.16831550885277 0.116292447109517 -0.0699958800000005
9.61534097499148 0.0589057533254271 -0.230995180000001
10.3841011421818 0.0912912588249046 -0.197998040000002
10.8173601312271 0.0968400457606444 -0.225997920000005
11.2646176759069 0.109330090878358 -0.233997340000002
11.6839941485882 0.142875989083028 -0.213996880000003
12.0749093529185 0.0227858931201457 -0.220996849999999
12.4802872699654 0.0493905331428426 -0.26299667
12.8854331084713 0.00611843426373682 -0.307994839999999
13.2490474371558 0.0817760386423192 -0.243995660000003
13.695956864024 -0.010549024592672 -0.276996610000005
14.5345937701161 0.0216044023657656 -0.233997340000002
15.3875773496543 0.165514195858881 -0.314994810000002
15.8067217437946 0.129183355161748 -0.237995140000002
16.2955107982957 0.0227436970217729 -0.254997250000002
16.743116460787 0.140048850492191 -0.345996849999999
18.2658259646396 -0.0466899828471403 -0.344997400000004
18.6153256984191 -0.0129120061014314 -0.2539978
18.9928225434676 0.0347484870082218 -0.243995660000003
19.4260815325129 0.0402972739439624 -0.350997920000005
19.8176929724663 0.129837394686491 -0.371997830000005
20.2229548502427 0.121503665258286 -0.356998440000005
21.0331304879838 2.10980491726076E-05 -0.274997710000001
21.4526229999357 0.068505365704743 -0.358997340000002
21.8440023613481 0.0881687475454669 -0.370998380000003
23.0041418899509 0.140217634885669 -0.317996980000004
23.4230542055501 0.034010055286732 -0.318996430000006
24.6109587668808 0.0300647200890758 -0.352996820000001
25.0302192002916 0.0286722488428435 -0.33499527
25.8553217078314 0.193637895422915 -0.326995850000003
26.330344285239 0.15013371800277 -0.507995600000001
26.6376162735741 0.0932111813007594 -0.307994839999999
27.0426460728094 0.0150007129707497 -0.332996370000004
27.4621385847613 0.0834849806263218 -0.380996700000004
27.8677485803492 0.179966359550823 -0.3789978
28.3003113337714 -0.024115070218846 -0.379997250000002
28.6921548522659 0.135301789425485 -0.360996240000006
29.1250657234996 0.0360354680085209 -0.35799789
29.530791758358 0.167455216383923 -0.349998470000003
30.0058143357657 0.123951038963778 -0.422996520000005
30.4107280957305 0.0108022011828695 -0.425994870000004
31.1236100796535 0.0503610434053581 -0.29899597
31.8783716912094 0.0758052907228617 -0.39399719
32.2561006147989 0.193342522734318 -0.434997559999999
33.0107461870842 0.183848400600921 -0.440998069999999
34.6315616196486 0.0806367439862985 -0.317996980000004
35.051170170871 0.184059381092771 -0.367996210000001
37.0357159713904 0.191443698307635 -0.400997160000003
38.2652680818129 0.103507029303191 -0.3429985
38.6845285152237 0.102114558056959 -0.370998380000003
39.1040210271756 0.170598825712529 -0.391998290000004
39.5089347871404 0.057449987931621 -0.484996790000004
39.8303213703805 0.0424070788624835 -0.292995449999999
40.7110699826465 0.130322649817742 -0.411994929999999
41.1300983375163 0.0590534396697038 -0.350997920000005
41.5911223592895 0.00860800406758955 -0.37299728
42.4579884551916 0.124520686291774 -0.477996820000001
43.2403990602049 0.0590323416205187 -0.375995630000006
44.0932666004725 0.168003765662732 -0.353996270000003
44.5264095502473 0.138614183147574 -0.345996849999999
45.2949376388966 0.101122949745243 -0.382995600000001
45.5887912679499 0.211951002115768 -0.306995390000004
46.776347711469 0.103190558565405 -0.649997710000001
47.0278575558072 0.0883797280373066 -0.315998069999999
47.7968498015386 0.190641972438588 -0.306995390000004
48.173650410964 0.028672248842831 -0.227996820000001
49.0125193955972 0.13070241470307 -0.269996640000002
49.4878900908164 0.192013345635633 -0.351997369999999
49.9346834784141 0.0647499129497362 -0.317996980000004
50.8015495743162 0.180662595173924 -0.274997710000001
51.2070435306336 0.242205604647523 -0.270996090000004
51.5977266564229 0.0522387697828393 -0.201995850000003
52.0172191683747 0.12072303743841 -0.25199508
52.3944839348822 0.0985067916462583 -0.224998470000003
53.1775907755185 0.242648663680413 -0.263996120000002
53.5827366140244 0.199376564801309 -0.285995480000004
53.9597693019908 0.107283580107353 -0.255996700000004
54.3371501077687 0.120005703766108 -0.265995020000005
54.7144148742761 0.0977894579739562 -0.233997340000002
56.3915726471899 0.127157942439933 -0.205997459999999
57.3699630310857 0.158847212316292 -0.233997340000002
57.6910014965142 0.0389891948944481 -0.12699508
59.0608872810929 0.125280216062436 -0.138996120000002
61.4091634495674 0.243260507106786 -0.172996520000005
61.8143092880732 0.199988408227679 -0.130996700000004
62.233569721484 0.198595936981445 -0.0919952400000028
64.5257356281501 0.253872825847001 -0.0619964600000031
64.9168829110215 0.203659468785922 -0.0889968800000034
67.0272996729806 0.238576740187639 -0.0399971000000008
67.4322134329454 0.125427902406727 -0.000999450000009006
68.5924690008187 0.212415159197832 -0.062995910000005
68.8997409891538 0.155492622495817 0.0500030500000008
69.2493567622038 0.22420896869243 0.0180053699999974
70.0041183737597 0.249653216009932 -0.0169982900000036
70.7448814296811 0.268156205145466 0.0970001299999979
71.6252819241356 0.251256667748017 0.0559997599999917
72.4496881960523 0.206592097622678 0.0710067800000047
72.8549500738286 0.198258368194473 0.109001159999991
73.6094796068435 0.153825876610174 0.136001589999992
73.958515183541 0.0478503755522759 0.260002139999997
76.3490190974599 0.256531180044345 0.18200684
76.7260517854262 0.164438195350392 0.253005979999998
77.8721927583945 0.209545824508623 0.23900605
78.5984931015994 0.0813540776585704 0.309005740000003
79.6468762636675 0.147749638444793 0.319000250000002
80.0801352527128 0.153298425380537 0.242004399999999
80.8910071260771 0.241446074876833 0.346000669999995
81.6874162867248 0.182898988387549 0.34500122
82.0367999812338 0.181738595682354 0.426002510000004
82.4420618590102 0.173404866254153 0.414001470000002
82.861322292421 0.172012395007918 0.397003179999999
83.9653515592154 0.161357880169334 0.415000919999997
84.3426163257228 0.139141634377175 0.427001959999998
84.7204612885828 0.291617235839539 0.460006719999996
85.5025237757845 0.121313782815577 0.550003050000001
86.3551592375112 0.160408467955989 0.479003910000003
87.1521485945115 0.276553228721212 0.562004090000002
87.5992900999207 0.254104904388022 0.561004639999993
88.0323170104249 0.189776952421958 0.541999820000001
90.8973793446694 0.215200101690279 0.650001529999997
91.2746441111768 0.192983855898127 0.738006589999998
94.2238138184986 0.294992923709188 0.849006660000001
94.8943520177067 0.208912883033051 0.832000739999998
95.2578503071207 0.249632117960729 0.819000250000002
95.5788887725492 0.129774100538881 0.873001099999996
95.9986133630421 0.268135107096263 0.842002870000002
96.37599416882 0.280857230755011 0.895004279999995
96.7390283011519 0.181822987879094 0.923004149999997
97.1026426298365 0.257480592257672 0.895004279999995
98.2205544129948 0.218828966150149 0.855003359999998
98.5698220682333 0.182730203994055 0.914001470000002
98.8912086514734 0.167687294924917 0.986000059999995
99.2267098296185 0.194524013488653 1.03700257
100.76434620327 0.294233393938512 1.05100251
101.18349059741 0.257902553241372 1.09600067
101.60251895228 0.186633343093341 1.11100005999999
102.469501087452 0.337484394768431 1.13800049
102.846533775419 0.245391410074475 1.15299988
103.195801430657 0.209292647918382 1.20000458
103.587412870611 0.298832768660908 1.19600678
104.621797477044 0.35828707126516 1.35500336
104.984715570106 0.224314458938338 1.29100036999999
105.711480070393 0.23587618989189 1.19700623
106.829391853551 0.197224563784367 1.34900666
108.828284327517 0.316365247533909 1.47900391
109.177203864943 0.175451377025112 1.50600434
109.554816749262 0.258050239585664 1.48200226
110.659078094598 0.317272463648877 1.55500031
111.036458900376 0.329994587307638 1.62600707999999
111.49759896142 0.314487521156423 1.59900666
112.62904514313 0.143023675427258 1.77200318
113.00689010599 0.295499276889622 1.67700196
113.383922793957 0.203406292195666 1.63600158999999
113.761419639005 0.251066785305319 1.65100097999999
114.111151451326 0.354721500952834 1.78700257
115.354702117383 0.27372609013036 1.76399993999999
117.185611923734 0.309571675696233 1.91500092
117.548762095337 0.245475802271208 1.90500641
118.638676767226 0.192941659799743 1.95600128
118.988756697358 0.401411483799954 2.05700684
119.421551529322 0.267206792932093 1.97600556
120.888730967719 0.192456404668476 2.12200165
121.322222035305 0.267881930506029 2.15700531
122.65011215298 0.333349177128092 2.16400147
123.362994136903 0.372908019350582 2.25500489
123.754141419775 0.322694662289507 2.23700714
124.117175552106 0.223660419413577 2.29000092
124.508670952789 0.278262170705204 2.30599975999999
125.207670420348 0.345818124196619 2.35700226
125.556705997046 0.239842623138721 2.34799957999999
125.906437809366 0.343497338786236 2.36800384999999
127.01035103689 0.297904454496745 2.43099975999999
127.387499764127 0.240749839253695 2.48100280999999
128.114264264414 0.252311570207247 2.48900605
128.477994632369 0.36290754403673 2.53300476
129.554258866436 0.408247251736 2.64000702
129.917176959497 0.274274639409171 2.65299988
130.629826864879 0.243956742729857 2.72900391
131.384356397894 0.199524251145561 2.77900696
132.13911800945 0.224968498463056 2.74300384999999
133.215730361328 0.375123314515029 2.78900147
133.522886310393 0.28326240836212 2.91200257
134.738555904451 0.223322850626609 2.9200058
135.172395089849 0.403563484816857 2.90400696
135.591539483989 0.367232644119724 2.95200348
136.373834049732 0.266805929997567 3.01600646999999
137.030489732576 0.208723000590361 3.14900208
137.408218656166 0.326260232601811 3.0699997
137.715838762312 0.374152804252503 3.20800018999999
138.414722190601 0.406770388293026 3.20899964
138.777988401474 0.3776128843189 3.20100402999999
139.127372095983 0.376452491613705 3.2420044
139.476523711951 0.305415360006712 3.21700287
139.826255524271 0.40907007565422 3.31800079999999
140.245399918412 0.372739234957088 3.29100036999999
140.608434050744 0.273704992081157 3.37800598
140.986162974333 0.391242224092622 3.30500031
141.572709839734 0.263514634324643 3.35900115999999
142.942595624313 0.349805655492638 3.54600524999999
143.375738574088 0.320416072977473 3.54400635
145.052780307731 0.314846187992543 3.75500489
145.472040741142 0.313453716746317 3.73100280999999
146.576302086477 0.372675940809529 3.77200318
146.939684336621 0.378456806286302 3.73400115999999
148.35098559175 0.310879754745699 3.84500122
148.728598476069 0.393478617306258 3.89900208
149.497242603989 0.390925753354828 3.93900298999999
149.832279625052 0.278008994114955 4.01800537
150.223542947194 0.262734006504786 3.86400605
150.503281981342 0.331682431242434 4.06500244
151.649538993581 0.411728429851564 4.14600373
152.445948154229 0.35318134336228 4.21600341999999
152.837443554912 0.407783094653908 4.22000122
153.21482436069 0.420505218312663 4.25400544
153.829136258819 0.236783406006829 4.39600373
154.556248876917 0.353160245313092 4.30800628999999
154.891750055062 0.379996963876835 4.33300018999999
156.45680334363 0.318897013436121 4.48400115999999
157.169453249012 0.288579116756807 4.52900696
157.54683405479 0.301301240415562 4.5660019
158.692858988488 0.311470500122887 4.64700318
159.056241238631 0.31725136559966 4.71600341999999
159.769007183284 0.321871838371251 4.79300689999999
160.77574279626 0.472258732964264 4.93400574
161.180888634766 0.428986634085163 4.94400025
161.627914100905 0.371599940301067 4.93800354
0.321270543969568 -0.0499812785200401 -0.00599669999999719
0.866634017361088 0.0460359433223831 0.0370025699999985
1.06156944280892 -0.171231767188115 -0.0279960599999995
1.4534129613034 -0.0118149075437841 -0.131996149999999
1.67646153729068 -0.180261732239436 -0.0329971300000054
1.91490114015866 0.0774931346577051 -0.0719947800000043
2.12395116051147 -0.097894948219919 -0.0389976499999989
2.57155682300278 0.0194102052504992 -0.051998140000002
4.24859855664606 0.0138403202655719 -0.140995020000005
4.91936883439516 -0.0023629815087598 -0.13799667
5.5204944517835 0.0515425341597506 -0.102996820000001
5.72954447213631 -0.123845548717874 -0.0869979799999996
6.28879046189178 -0.0558254381443795 -0.190998069999999
6.86203500728171 0.0191359306110876 -0.115997310000004
7.56045427848818 -0.0879999631520043 -0.184997559999999
8.10558567333866 -0.0618594802113841 -0.147994990000001
8.48331459692817 0.0556777518000726 -0.215995790000001
8.70636317291544 -0.112769072895579 -0.166996000000005
8.97268384778183 0.123929940914606 -0.187995910000005
9.16761927322966 -0.0933377695958928 -0.237995140000002
9.62910745208491 -0.00402972739440344 -0.21199798
10.3136442069274 -0.0831685098885657 -0.175994870000004
10.6497255814251 0.118360055929678 -0.256996149999999
10.8866566737763 -0.0780838800349022 -0.191997530000002
11.3900244802645 -0.00289043273839695 -0.245998380000003
11.9072748031165 0.044305903289179 -0.274997710000001
12.1303233791038 -0.124140921406473 -0.176998140000002
12.5500479695967 0.0142200851509031 -0.258995050000003
13.2485832800737 -0.0579774391612871 -0.175994870000004
13.8078292698292 0.010042671412207 -0.240997310000004
14.3531927432207 0.10605989325463 -0.235996240000006
14.5622427635735 -0.0693281896229943 -0.202995300000005
15.0098484260648 0.0479769638474243 -0.346996300000001
15.6249725990876 0.108823737697907 -0.293994900000001
15.8340226194404 -0.0665643451797164 -0.243995660000003
16.2678618048383 0.113676289010532 -0.324996949999999
16.4909103808256 -0.0547705356851189 -0.225997920000005
17.050156370581 0.0132495748883752 -0.288997649999999
18.2381769711822 0.0442426091416195 -0.318996430000006
18.4333444751711 -0.103148362467075 -0.2539978
18.6436709274996 0.105785618615219 -0.364997860000003
18.8807180591214 -0.05571994789846 -0.299995420000002
19.2443323878059 0.0199376564801224 -0.340995790000001
19.6918220110267 0.102304440499639 -0.290996550000003
19.8867574364745 -0.11496327001086 -0.355995180000001
20.2228388109722 0.0865652958073841 -0.40299606
20.4738844982284 -0.0679990125243215 -0.287998200000004
20.9074916050852 0.0423648827641241 -0.33699798
21.6480225824656 -0.00900886700214976 -0.282997130000005
22.2909117882163 -0.00415631568952435 -0.329998010000004
22.8501577779718 0.0638637948839715 -0.412998200000004
23.646450899349 -0.029621661056213 -0.327995300000005
24.2753415494652 -0.0317103679255624 -0.356998440000005
24.7788253952238 0.078421448821846 -0.35799789
25.3657203784367 0.0555089674065794 -0.332996370000004
25.7710982954835 0.0821136074292763 -0.368995660000003
26.3857583114243 0.00320690347615482 -0.353996270000003
26.9587707782732 0.00829153332981569 -0.32899475
27.4622546240318 0.118423350077224 -0.410995480000004
27.6993017556536 -0.0430822164364546 -0.329998010000004
28.2587798239501 0.0948146330388422 -0.343997950000002
28.4678298443029 -0.0805734498387825 -0.3429985
28.9434326180631 0.0506142199955821 -0.551998140000002
29.1945943445898 -0.0690117188852231 -0.306995390000004
29.5865539023548 0.12534351021001 -0.397994990000001
29.837599589611 -0.0292207981216954 -0.248996730000002
30.061924597574 0.18665444114257 -0.475997920000005
30.2849731735613 0.0182076164469187 -0.410995480000004
30.7184642411476 0.0936331422844638 -0.37299728
30.9555113727694 -0.0678724242292166 -0.258995050000003
31.30524318509 0.035782291418295 -0.427997590000004
31.9758974235685 -0.015359379806938 -0.413997649999999
32.6327851849537 -0.00356557031233962 -0.395996090000004
33.415195789967 -0.0690539149835967 -0.398998259999999
33.8490349753648 0.111186719206652 -0.426998140000002
34.0580849957176 -0.0642013636709713 -0.426998140000002
34.50592273675 0.12298052870125 -0.331996910000001
35.05093809233 0.114182642190968 -0.371997830000005
35.6238345199083 0.0843289025937306 -0.411994929999999
36.1967309474867 0.0544751629964928 -0.4679985
36.8116230419685 0.0454451979451722 -0.414997100000001
37.4125165808158 0.0294739747118786 -0.375995630000006
37.9857611262057 0.104435343467346 -0.295997620000001
38.6702978810482 0.0252965609731834 -0.368995660000003
39.2016627988053 0.114372524633634 -0.429996490000001
39.438709930427 -0.0471330418800449 -0.314994810000002
39.8724330765544 0.0981692228593012 -0.367996210000001
40.5710844263019 0.0609100679980159 -0.380996700000004
41.0745682720605 0.171041884745421 -0.38799667
41.2696197367789 -0.0112874563141787 -0.435997010000001
41.7731035825375 0.0988443604332332 -0.388996120000002
42.4019942326538 0.0967556535638856 -0.354995720000005
43.1006455824013 0.0594964987025968 -0.29499817
43.7015391212486 0.0435252754693032 -0.344997400000004
44.2469025946401 0.139542497311723 -0.315998069999999
44.9870854542089 -0.0166463608072505 -0.365997310000004
45.4766867836036 0.121482567209085 -0.353996270000003
46.0638138453575 0.168446824695621 -0.286994929999999
46.2868624213448 -2.8421709430404E-14 -0.254997250000002
46.7064709725672 0.103422637106444 -0.350997920000005
47.293598034321 0.15038689459298 -0.359996790000004
47.5026480546739 -0.0250011882846408 -0.3429985
47.8946076124389 0.169354040810592 -0.403995510000001
48.1317707833311 0.0427868437478161 -0.271995539999999
48.7467789170834 0.0686952481473959 -0.302997590000004
49.417433155562 0.0175535769221611 -0.356998440000005
49.9070344849567 0.1556825049385 -0.362995140000002
50.1440816165784 -0.00582306157518175 -0.263996120000002
50.6752144557944 0.0133761631834659 -0.289997100000001
51.206463334281 0.0675137573930122 -0.288997649999999
51.8212393894922 0.0235454228907948 -0.309997559999999
52.3803693399772 0.0566271640133849 -0.323997490000004
52.9394992904621 0.0897089051359785 -0.28399658
53.5265103129455 0.101734793171612 -0.320995330000002
54.1136373746994 0.148699050658152 -0.27799606
54.3226873950522 -0.0266890322194726 -0.293994900000001
54.8400537571748 0.0554456732590047 -0.296997070000003
56.167711796309 0.0510361809792741 -0.186996460000003
56.7407242631579 0.0561208108329367 -0.230995180000001
57.3000862921839 0.159079290857331 -0.15899658
57.4951377569022 -0.0232500502022681 -0.207996370000004
58.0405012302938 0.0727671716401588 -0.215995790000001
58.7811482469447 0.0563317913247872 -0.166996000000005
59.4101549363314 0.0891814539063382 -0.159996030000002
59.9274052591835 0.136377789933917 -0.350997920000005
60.2064480577086 -0.00430400203384451 -0.13799667
60.5562959092997 0.134289083064569 -0.24799728
61.1154258597847 0.167370824187163 -0.168994900000001
61.7444325491714 0.200220486768714 -0.0509948700000038
61.9534825695242 0.0248324038910894 -0.0849952700000003
62.4566182974713 0.0301491122857911 -0.157997130000005
62.9741006988644 0.147222187215171 -0.109996790000004
63.6308724209791 0.12407762725887 -0.111995690000001
64.1622373387361 0.213153590919319 -0.0609970100000012
64.3992844703579 0.0516480244056403 0.00500488999999504
64.7630148383129 0.162243998235123 -0.113998410000001
65.3360273051618 0.167328628088789 -0.0909957900000009
65.5730744367835 0.0058230615751107 -0.00799560000000099
66.1599694199964 -0.0170894198401577 -0.0649948100000017
66.6635693050255 0.127980766358153 -0.0209960900000041
67.2366978111449 0.168003765662718 -0.0799980100000042
67.4737449427667 0.00649819914903915 0.00200653000000273
68.0611040830616 0.12333919553738 -0.0579948399999992
68.7461049949862 0.183953890846823 0.0390014700000023
69.5425141556339 0.125406804357539 0.105003359999998
70.227166949747 0.0812063913142822 0.0699996999999968
70.8421750834993 0.107114795713862 0.0430068999999946
71.5409424725173 0.104794010303472 0.104003910000003
72.1977141946319 0.0816494503471716 0.155006409999999
72.6590863342167 0.136019123097761 0.082000739999998
73.3715041610576 0.0358244875166385 0.161003120000004
73.8051112679145 0.146188382805086 0.121002199999992
74.2944805187681 0.214440571919617 0.113006589999998
74.5175290947554 0.0459937472239673 0.146003730000004
75.0906576008748 0.0860167465285322 0.127006530000003
75.6918992575337 0.174860631647945 0.198005679999994
76.5303040850848 0.137137319704578 0.296005249999993
77.2289554348323 0.0998781648432896 0.249000549999991
77.9277228238503 0.0975573794329065 0.275001529999997
78.2636881590775 0.264147575800248 0.252006530000003
78.5007352906992 0.102642009286566 0.300003050000001
78.8924627699232 0.227120499479994 0.245002749999998
79.1295099015449 0.0656149329663194 0.310005189999998
79.6049966360346 0.161864233349782 0.332000739999998
79.8701569181958 0.0491795526509478 0.513000489999996
80.3456436526856 0.145428853034407 0.368003849999994
81.0165299697052 0.164163920710983 0.357002260000002
81.7292959143577 0.168784393482568 0.354003910000003
82.4279472641052 0.131525238621279 0.347000129999998
83.1268306923937 0.164142822661795 0.451004029999993
83.7138417148771 0.176168710697425 0.436004639999993
84.2172095213652 0.251362157993938 0.444999699999997
84.454256652987 0.089856591480256 0.479003910000003
84.7762234325797 0.249505529665626 0.465003969999998
85.0132705642014 0.0879999631519439 0.515007019999999
85.502407736514 0.0863754133646779 0.466003419999993
85.8942512550085 0.245792273009009 0.477005009999999
86.1312983866302 0.0842867064953339 0.510002139999997
86.8439482920122 0.0539688098160127 0.585006719999996
87.2357918105067 0.213385669460344 0.446006780000005
87.5009520926679 0.10070098876151 0.643005369999997
88.1160762656907 0.161547762611995 0.62900544
88.9404825376074 0.116883192486654 0.673004149999997
89.444198461907 0.29689174813587 0.686004639999993
89.6812455935288 0.135386181622188 0.73500061
90.2124944720153 0.189523775831738 0.590003969999998
90.9531414886662 0.173088395516366 0.70500183
91.568033583148 0.16405843046504 0.670005799999998
92.1691592005363 0.217963946133551 0.706001279999995
92.3922077765236 0.0495171214379084 0.755004889999995
92.8818091059183 0.187646049454237 0.751007079999994
93.5384647887624 0.129563120047031 0.777000430000001
94.6707232453668 0.202667860474193 0.843002319999997
95.313496411847 0.172582042335918 0.798004149999997
95.844861329604 0.261658005996367 0.868003849999994
96.6970326342486 0.160999213333177 0.904006960000004
97.4237971345355 0.17256094428673 0.957000739999998
97.9831591635615 0.275519424311128 0.943000799999993
98.2062077395488 0.107072599615478 0.958999640000002
98.6260483693122 0.280371975623751 0.992004399999999
98.8770940565684 0.125807667292044 1.05700684
99.4223414906894 0.186886519683561 1.0450058
100.037233585171 0.17785655463225 1.04800415
100.596479574927 0.245876665205735 1.03200531
101.351009107941 0.201444173621447 1.14800262999999
102.02166334642 0.150302502396208 1.11800384999999
104.006093107669 0.122748450160174 1.14700318
104.621333319962 0.218533593461551 1.25800323999999
105.250340009349 0.251383256043113 1.24700165
106.074630241995 0.171780316466865 1.34500122
106.689522336477 0.162750351415546 1.31400298999999
107.346294058592 0.139605791459246 1.39000702
107.947303636709 0.158572937676851 1.39500427999999
108.548429254098 0.212478453345362 1.4449997
109.330839859111 0.146990108674103 1.47200013
110.686727088055 0.226339871660123 1.56800079999999
111.148331306181 0.350586283312509 1.51399993999999
111.399493032708 0.230960344431708 1.66200257
112.042382238458 0.235812895744331 1.60400391
112.727151071842 0.226550852151973 1.63400269
113.467798088493 0.210115471836602 1.74900054999999
114.16633339897 0.137917947524407 1.72299957999999
114.599940505827 0.248281842812858 1.71300506999999
114.836987637448 0.0867762762991759 1.71300506999999
115.354353999571 0.168910981777657 1.75200653
116.094884976951 0.117537232011387 1.82400513
116.612251339074 0.199671937489867 1.80599975999999
117.339131878632 0.246172037894326 1.93099975999999
118.625026329403 0.290815509970479 1.97200013
118.848074905391 0.122368685274822 1.93900298999999
119.337908313326 0.330374352192962 2.05599975999999
119.560956889314 0.161927527497305 2.02400208
121.014601929158 0.219989358855329 2.15700531
121.546082886186 0.344003691966684 2.13200379
121.797012534171 0.154501014184071 2.13200379
122.439901739922 0.159353565496701 2.05599975999999
123.055141952215 0.255138708798079 2.16800689999999
123.74002682487 0.280815034656626 2.24500275
123.963075400857 0.112368209960977 2.24600219999999
124.410797102619 0.264611732882301 2.3199997
125.137445563635 0.241235094384955 2.36600495
125.822214397019 0.23197305079259 2.38400269
126.562629335129 0.145660931575421 2.4410019
127.010118958349 0.228027715594934 2.37100219999999
127.597246020103 0.274991973081477 2.50200653
127.834293151725 0.113486406567795 2.51700592
128.226136670219 0.272903266212133 2.54300689999999
129.022429791597 0.179417810271936 2.57600402999999
129.554026787895 0.338370512834196 2.63100434
129.790957880246 0.141926576869615 2.56500244
130.434195203808 0.251594236534942 2.68700409
131.091082965193 0.26338804602954 2.66100312
131.664443549854 0.373287784235906 2.75600434
131.873493570207 0.197899701358288 2.67500305
132.558610521402 0.293452766118627 2.84500122
134.123547770699 0.197414446227022 2.86300659
134.641146211362 0.3494258906073 2.95899964
134.892075859348 0.159923212824701 2.95800018999999
135.549079660004 0.206655391770198 2.98500061
136.178086349391 0.239505054351746 3.07400513
136.625575972611 0.321871838371266 3.03900147
136.876621659868 0.167307530039558 3.10400391
137.324227322359 0.284612683509977 3.13400269
137.883473312114 0.352632794083469 3.15600585999999
138.106521888102 0.184185969387819 3.13899993999999
139.518287300313 0.256362395650825 3.2480011
141.531178329913 0.382444337582335 3.42900086
141.782224017169 0.227880029250628 3.4940033
142.480875366917 0.190620874389339 3.46000672
143.1656442003 0.181358830796981 3.33700562
143.697357235869 0.37524990281014 3.54000092
145.290291596435 0.29309409928247 3.71700287
145.84942154692 0.326175840405064 3.67400359999999
146.072354083637 0.122790646258515 3.54199982
146.492310752671 0.331028391717695 3.73200226
146.743588518468 0.246340822287792 3.89600373
147.959722269608 0.326154742355882 3.89400481999999
148.854005280427 0.281258093689509 4.02900696
150.419174608265 0.255096512699694 4.04900359999999
151.104059480919 0.280772838558235 4.05700684
151.886702164473 0.285161232788781 4.16200257
153.298119458873 0.252522550699084 4.34300232
153.745609082094 0.334889334718596 4.29100036999999
153.982540174445 0.138445398754023 4.2420044
155.185023487763 0.316133168992842 4.44400025
156.051309387313 0.257354003962526 4.50200653
156.58279034434 0.381368337073873 4.50500489
156.861833142865 0.240686545106115 4.58800506999999
157.504954427157 0.315415835320543 4.58600617
157.756000114413 0.160851526988843 4.58700562
158.371356365977 0.291575039741126 4.69000244
159.167881565895 0.26796632270274 4.73200226
159.741242150556 0.377866060909113 4.81200409
159.978405321448 0.251298863846337 4.89400481999999
160.495771683571 0.333433569324811 4.86600495
161.110779817323 0.359341973724383 4.92500305
161.36194154385 0.239716034843582 5.00600434
161.893190422336 0.293853629053132 4.96200562
