ply
format ascii 1.0
comment File exported by Rhinoceros Version 7.0
element vertex 1029
property float x
property float y
property float z
end_header
144.194736333228 0.309513286437537 -8.06000138
136.226981834382 8.50278928990386 -7.25
143.814928553527 0.230787746522162 -7.90000153
142.773996851162 0.226507569165137 -7.99000168
134.770839489501 8.40955275981002 -7.34999848
132.583836797576 8.37405701120059 -7.27000046
131.427910253799 8.53653135473507 -7.15000153
138.231415641785 0.248170022344298 -7.90000153
137.649767776247 0.259381709143392 -7.88999939
22.3869694278985 0.313621067762122 -2.16999817
137.100314869766 0.269553075057098 -7.91999817
136.627130116651 0.205219631504719 -7.88000107
22.8129890044146 0.326396208234684 -2.24000168
128.356673449785 8.4765256460659 -7.09000016
134.971170366968 0.323186075216918 -7.84000016
134.547405314428 0.204173365928562 -7.79999924
23.1821037715864 0.367551302460624 -2.20000077
126.900531104903 8.38328911597206 -7.20999909
131.385883519288 0.283582545282898 -7.84000016
129.760211969097 0.165491263064454 -7.84000016
128.639804209606 0.224444761466679 -7.66999817
128.033446493781 0.262996081133772 -7.79000092
127.527950860139 0.313454616420459 -7.72999954
126.611521788992 0.289984977246122 -7.70999909
118.277860426734 8.45337702019333 -6.86000061
125.073764784479 0.252468033773647 -7.61999893
24.1961870211584 0.391657023547754 -2.29000092
117.789589534609 8.45019661062943 -6.82999802
123.538030461002 0.336216837392748 -7.66999817
115.927628415546 8.52932044482664 -6.82999802
115.392192346823 8.47458173218291 -6.93000031
122.135585021706 0.203329219838701 -7.61999893
120.488295603516 0.237600362148759 -7.59000016
23.3713203065661 8.4527052701359 -2.09000016
119.979592066115 0.276787763728625 -7.54000092
24.8571950223522 0.43096331894309 -2.43999863
111.391578935156 8.45977350746577 -6.70999909
117.875157413604 0.303081131020457 -7.45999909
110.432145970953 8.51352540144106 -6.61000061
110.036182750988 8.49219585094522 -6.68000031
116.52843156093 0.251808173097769 -7.47999954
24.1266586609562 8.59512817169088 -2.09000016
109.615509680737 8.49820593331738 -6.61999893
115.082866307107 0.30989374664705 -7.45000077
108.243004676522 8.47051556369375 -6.63999939
113.068600724251 0.310523883869057 -7.29999924
106.297406216792 8.48409323742075 -6.54999924
112.226301203965 0.205035346090736 -7.27999878
105.357336596611 8.49172027568333 -6.56000138
111.720805570323 0.25549388137743 -7.22999954
109.658189588146 0.314560328904361 -7.3199997
109.275173904687 0.224563655282155 -7.24000168
106.834888745314 0.212418652031603 -7.15000153
99.9080659488336 8.40997483285495 -6.27999878
98.4989728590798 8.48204826379462 -6.3199997
104.498557650415 0.337203656061171 -7.06000138
97.9924079241853 8.52874975451236 -6.29000092
97.1124510171073 8.5192679727284 -6.25
101.197678927987 0.26945201531395 -6.93000031
92.8886114945451 8.51925608334685 -6.16999817
98.789588727672 0.256266691178003 -6.91999817
97.9729524374558 0.240947223054321 -6.8199997
97.5082061728948 0.320421794007172 -6.75999832
26.3803057949717 8.52230570971373 -2.3199997
88.9824443575449 8.49381280683566 -5.90000153
94.5999668452028 0.376480228002643 -6.70000077
88.5457317684997 8.44346722067366 -5.93999863
93.0098140792972 0.15486810065195 -6.70000077
92.0889918816685 0.230121941155514 -6.75999832
86.0098151117382 8.5519518826019 -5.8199997
91.288395110246 0.271158141565981 -6.52000046
28.6336289433401 0.34305917647321 -2.61000061
90.8097479293972 0.301791133122571 -6.54000092
89.0583885252645 0.312883926106193 -6.36000061
88.5830651696445 0.241036393415926 -6.50999832
88.1021634648198 0.377906953788316 -6.36000061
82.189539839381 8.4858171977451 -5.70999909
87.7105933713369 0.257853923614566 -6.41999817
86.9594163004884 0.244210858289052 -6.29999924
85.1554292920231 0.298711783301823 -6.25
78.9722984576204 8.48361171746808 -5.45000077
28.0833147997833 8.56964922703504 -2.45000077
84.3140831515199 0.31073194804613 -6.22000122
83.7817390650854 0.381016027062931 -6.29999924
82.8878812417197 0.322692665882706 -6.18999863
82.0208718711467 0.244543760972374 -6.18000031
81.5593335103444 0.33528946563206 -6.11000061
80.4498506063234 0.204310093816351 -6.15000153
74.3105611232899 8.54324885530928 -5.29999924
72.2780014976643 8.59376089281294 -5.22000122
77.0092671921969 0.330652606828616 -5.97000122
74.5282326637441 0.289491567911903 -5.81000138
71.2347231286166 0.361790897100968 -5.59999848
70.8903182117319 0.293296170007033 -5.52000046
69.7152601668731 0.274392053346841 -5.45000077
68.3491709701759 0.269243951136866 -5.34000016
67.3735825657087 0.380391834531698 -5.40999985
67.0323855525827 0.323168241144594 -5.20999909
64.6189488460033 0.291197694163935 -5.16999817
58.7341270531401 8.49679109691325 -4.45000077
63.4524452111677 0.302349934055294 -5.0699997
56.7938750996749 8.52915399348497 -4.36000061
59.1481762516972 0.248063017910371 -4.82999802
54.1486578721765 8.48192342528837 -4.25999832
32.2683354915936 0.327983440671248 -3.02000046
53.4919270759943 8.4576453081688 -4.13999939
31.05594404559 8.51151015126879 -2.68999863
58.0825346990454 0.271122473421339 -4.66999817
32.568783135639 0.356190998392189 -2.99000168
52.6751748643081 8.55607749799881 -4.13999939
56.8139837593031 0.38036211107783 -4.72999954
55.3578414144214 0.287125580983989 -4.65999985
54.6634532314472 0.358854219858784 -4.47999954
33.2738643311423 0.322032805206829 -3.18000031
49.8334640572367 8.61756937936138 -3.82999802
54.2395722574369 0.353593168524108 -4.57999802
53.1310427331987 0.34012249923103 -4.45000077
46.9909157918525 8.44780090024765 -3.75999832
51.3110162059397 0.338267755709654 -4.31000138
50.2314737370001 0.312485631824356 -4.22000122
49.853688638335 0.355025839000557 -4.18999863
34.4435758697365 0.322151699022302 -3.15000153
44.895035549365 8.50415062409102 -3.5
33.2011280671813 8.51423281964312 -2.77000046
49.1487233643017 0.275432374232231 -4.15999985
48.4135858122469 0.318144977440867 -4.07999802
41.0993542058248 8.52442796431992 -3.20000077
43.3473308479286 0.326396208234685 -3.84999848
43.048905884919 0.419454397605317 -3.65999985
35.4436422815506 0.411167498666854 -3.27000046
41.3222563310733 0.403207557720944 -3.61000061
39.6032078074682 0.29950837186549 -3.47999954
36.1058355054674 0.340479180677448 -3.3199997
42.6049162512805 8.56298522867778 -3.40000153
36.5126076594312 0.28562751890903 -3.40000153
43.7477793370819 8.58292966622336 -3.49000168
47.6904186381511 8.62236080012494 -3.70000077
48.2398715446321 8.61218943421124 -3.77000046
37.5019810587161 0.337072872864149 -3.36999893
49.8035236221552 8.51237213143097 -3.86999893
51.1062922019905 8.52335791998067 -3.95000077
52.4540873559182 8.5783879224723 -4.00999832
52.8555130036174 8.50475103785916 -4.11999893
39.1685178994587 0.370428532795068 -3.45000077
40.6507633815275 8.54650654585324 -3.32999802
4.35751072604858 8.54386115845896 -0.41999817
5.55727862119437 8.53542564225116 -0.560001379999996
53.6323533045357 8.60856317283932 -4.16999817
0.230048016481376 0.32055257720419 -0.0999984799999964
39.8820375835152 0.480078354114942 -3.5
54.2579584429134 8.63763865541321 -4.20999909
7.39880709498164 8.49866961919772 -0.689998629999998
1.22476792203088 0.390783154004026 -0.0999984799999964
55.3805048049096 8.58619924614887 -4.20999909
7.90953331341776 8.58074796470943 -0.709999089999997
1.52747009005217 0.312753142909168 -0.13999939
41.4016164667288 0.453725539915376 -3.56000138
1.84407317436128 0.283564711210574 -0.22000122
56.463371099078 8.5095008457873 -4.36000061
42.3439406108857 0.339860932836989 -3.68999863
2.55010774964741 0.366915220547844 -0.27999878
57.4634375108921 8.59851664543185 -4.31000138
9.19947027821819 8.54664921843181 -0.909999849999998
58.9444056275309 8.55066188470402 -4.38999939
44.7626079022596 0.504368360616053 -3.79999924
9.98402753084705 8.44925734948719 -0.840000159999995
44.4515831671552 0.32483869925199 -3.79000092
3.75736075356356 0.384779016322645 -0.409999849999998
59.5701266873787 8.46598570932423 -4.40999985
45.1373010186361 0.336805361779335 -3.84999848
63.8957816719075 8.59541351684801 -4.74000168
49.6786970052902 0.425137521984921 -4.18999863
50.365484158024 0.44086122908121 -4.20999909
4.55795752498606 0.343742815912177 -0.520000459999999
51.5534897393878 0.391098222615031 -4.31000138
52.2392075908686 0.403064885142377 -4.34000016
68.3750422644228 8.57958875000857 -4.93000031
52.8959383870508 0.427343002261941 -4.45999909
53.4122429546917 0.300703254710993 -4.45000077
69.8345084345333 8.57034475585556 -5.09000016
54.1065152161958 0.342726273789887 -4.54000092
6.01528509259077 0.326984732621273 -0.549999239999998
55.4124916997899 0.364983196046413 -4.59000016
71.8702759639177 8.53110385205873 -5.15000153
72.6278688422837 8.5672891847979 -5.20999909
6.40804040879661 0.33704314941028 -0.680000309999997
56.644454553993 0.355507358953223 -4.65999985
73.4091022696837 8.57237784010014 -5.20999909
73.9747106164285 8.5048104847669 -5.20999909
74.8031092204266 8.56145744314896 -5.32999802
58.6340102865621 0.382216854599206 -4.82999802
75.7914133184587 8.60914575253513 -5.36999893
59.8671583634883 0.262746404121272 -4.95999909
77.3250090394302 8.51788285977814 -5.45000077
60.9133206506475 0.399563462276704 -4.99000168
78.5547173696574 8.61464459150075 -5.38999939
78.2243292905306 8.4812397858494 -5.43000031
14.5039215709729 8.57620027626759 -1.32999802
61.689207571783 0.385866894734226 -5.02000046
8.18506304299907 0.416119426081299 -0.86000061
79.1642829892416 8.5873644055405 -5.49000168
80.576583982754 8.52656210830766 -5.52000046
63.6648623880643 0.363734810983947 -5.07999802
83.0533413061952 8.55269496894861 -5.68999863
8.53718491159435 0.28341014925046 -0.869998930000001
65.7864058606216 0.39755415679521 -5.31000138
83.7059108188359 8.44819324983871 -5.70000077
66.5976956445732 0.394088402074176 -5.27000046
84.7445879972248 8.55871099601154 -5.84000016
85.6020895779916 8.48929484184769 -5.84999848
68.8792605326345 0.305197440935868 -5.45000077
15.7337458226703 8.55921035003652 -1.43999863
87.8136861987335 8.61120261554281 -5.88000107
87.5455494352155 8.46820307898279 -5.84999848
69.8664953294136 0.349128705753104 -5.40999985
9.28289955470821 0.392019649684945 -1.04000092
71.2240301160875 0.324220451411532 -5.56000138
90.1854201564494 8.49664842433469 -6
72.2166114191312 0.38693693907348 -5.54000092
91.5245449788837 8.63537372822845 -6.06000138
73.098706928715 0.403932809995333 -5.61999893
9.59201753024695 0.336531906003747 -1.04000092
92.2350886021216 8.50624909993412 -6.09000016
73.9626243169993 0.357058923245146 -5.61000061
16.4119785653807 8.54487770058126 -1.43999863
93.3092845647967 8.5132460009747 -6.15999985
74.7717754984451 0.346079079386226 -5.72000122
9.94188487486634 0.310060197988708 -0.979999540000001
94.1506307052998 8.50122583623039 -6.22999954
75.4489389399027 0.327989385362021 -5.86000061
76.2967008879233 0.338511488031373 -5.79000092
77.0800729178291 0.3511142324715 -5.79999924
16.8100803878511 8.57372134021498 -1.38999939
96.749752057453 8.50065514591612 -6.20999909
77.7560511365637 0.443019151832044 -6.09000016
10.4279012430155 0.419478176368409 -1.00999832
97.7498184692671 8.58967094556068 -6.31000138
98.5557617469541 8.56741996799493 -6.34999848
79.0943385006852 0.350484095249496 -6
99.400315791216 8.56667093695745 -6.38000107
79.7393069830854 0.333434722110682 -6.04999924
10.7971319316573 0.346881612640662 -1.11000061
80.6224717939221 0.354187637601474 -6.06000138
101.13028917029 8.48043725259495 -6.45000077
81.3930122087931 0.32170584721428 -6.13000107
102.356789596759 8.56592785061074 -6.49000168
102.059665777942 8.43523976864294 -6.40999985
82.3738311980547 0.343094844617853 -6.07999802
83.0821202973168 0.320207785139322 -6.15999985
18.1225886004327 8.50476887193148 -1.54999924
83.9395059566136 0.36454328892916 -6.22000122
104.925970513831 8.46015991236606 -6.61000061
11.7973142649414 0.322145754331527 -1.16999817
84.6746435086684 0.321830685720529 -6.27999878
105.980919053953 8.39953001116565 -6.47000122
107.199934371652 8.45872129719883 -6.61000061
18.7019819419952 8.59979475394819 -1.59999848
87.6921834070973 0.421487481849906 -6.45000077
12.2866544583194 0.32908320846437 -1.24000168
109.532941641323 8.43641681741612 -6.68000031
88.5057277150248 0.311784158313068 -6.43999863
110.992291889963 8.54092448121679 -6.65999985
110.705861083676 8.44780684493842 -6.70999909
89.6646303196198 0.388084264392796 -6.43999863
111.894820044822 8.51555254099487 -6.81000138
90.3129226272489 0.268554367007124 -6.45999909
113.197588624658 8.52653832954457 -6.70000077
91.3451839981203 0.35652984576629 -6.59999848
114.416603942356 8.58572961557775 -6.75
114.132311738574 8.50012606843727 -6.77999878
92.2916694258188 0.371445074917365 -6.61999893
93.1244611562987 0.329368553621511 -6.68000031
94.26720832063 0.463064649120775 -6.79999924
93.9851706408243 0.271223533164492 -6.59999848
117.291694931207 8.41320279994503 -6.8199997
95.1633206679717 0.4151504414852 -6.77000046
95.9854193859225 0.33550347449991 -6.77000046
120.021618800626 8.52973657318079 -6.95000077
20.2839280622879 8.45009555088627 -1.79000092
119.759897844625 8.40927930403443 -6.86000061
97.1829327570923 0.433305527107909 -6.90000153
96.8793931307583 0.280075177726446 -6.81000138
98.1745606803532 0.37851331224723 -6.79000092
97.8634200237787 0.31273530883685 -6.93999863
99.0545175874312 0.387995094031191 -6.86000061
99.9291279882446 0.378691652970439 -6.95000077
124.522381339669 8.47530103976653 -7.04999924
14.2290450142904 0.304234401030537 -1.43999863
100.945349840322 0.410311463195453 -6.95999909
101.883280857998 0.395170335794981 -7
101.590434244193 0.279510432102954 -7.02000046
21.112326666286 8.50674250926833 -1.84000016
127.118294788064 8.46345921574543 -7.11000061
103.143045544776 0.483377657494317 -7.13999939
14.6614803983239 0.339551808916759 -1.43999863
102.874908781258 0.340378120934298 -7.02999878
102.579923564948 0.217204128104386 -6.97000122
128.550912505382 8.47404076532252 -7.15999985
104.047828223611 0.351768148456601 -7.07999802
105.326956254413 0.393850614443232 -7.0699997
105.006191886562 0.294259209912366 -7.11999893
106.43869368241 0.418592417443141 -7.24000168
21.8474642183408 8.46402990605969 -1.88999939
132.8359340423 8.46070087922646 -7.16999817
107.359515880038 0.343338576939574 -7.22000122
108.324295350506 0.308371905808998 -7.25999832
109.510046407894 0.364846468158619 -7.24000168
136.76788033084 8.46256156743861 -7.29999924
111.480354717911 0.323929161563627 -7.29999924
111.163867555072 0.239365935308531 -7.34999848
139.836978532349 8.5150531869699 -7.3199997
15.7347229812162 0.229040007434707 -1.54000092
112.658620666529 0.354104411930647 -7.36999893
112.393691806769 0.222376009077455 -7.27999878
141.050763265252 8.44170759220467 -7.36000061
113.664265427547 0.234402118512539 -7.27999878
142.913677764098 8.48009246053009 -7.34000016
115.273781537475 0.409889390150526 -7.43000031
114.98093492367 0.294229486458495 -7.38000107
16.2079077343304 0.293373450987089 -1.56000138
144.450365467358 8.51385235943362 -7.43000031
116.364132940414 0.359490301771566 -7.38999939
146.247820746836 8.55056082496087 -7.38999939
145.969944350572 8.48749954523405 -7.40000153
117.399718136514 0.344985256283875 -7.47000122
118.258289018534 0.279326146688971 -7.5
149.17530749708 8.56212919320638 -7.45999909
119.512707199048 0.348748245543591 -7.57999802
23.5954997972447 8.55541763732293 -2.0699997
119.228414995267 0.263144698403108 -7.59000016
150.445997039328 8.46040364468777 -7.45000077
152.501011991265 8.48878954313193 -7.38000107
17.0310757535341 0.217483528570742 -1.81000138
152.192009937196 8.43052562885944 -7.41999817
121.791064183351 0.248586150698452 -7.63000107
154.222315038846 8.48625116017158 -7.45999909
123.365293351933 0.30009095156131 -7.56000138
123.086347654416 0.23327262726555 -7.63999939
17.6919678332578 0.370541481919768 -1.68999863
155.900730114841 8.44718265240719 -7.43000031
155.621784417324 8.38036432811143 -7.43000031
124.819297094309 0.385813392517265 -7.70999909
124.540351396792 0.318995068221498 -7.75999832
157.991147929594 8.48579936367278 -7.45000077
157.708994328318 8.40770990567019 -7.41999817
18.06868363067 0.324244230174625 -1.75999832
159.666355101829 8.43545972220157 -7.43000031
159.36804606029 8.4147662536185 -7.54999924
127.401309626416 0.325129989099907 -7.68000031
127.0933768736 0.270623119396356 -7.75999832
161.751426410318 8.45529121062244 -7.40999985
128.664398138423 0.310856786552379 -7.68000031
163.642258663209 8.47760757978671 -7.43000031
163.361174363186 8.40327516635306 -7.40999985
129.943526169224 0.35293925253901 -7.8199997
129.653887459178 0.248550482553811 -7.75
129.374941761661 0.181732158258051 -7.81000138
165.543899850099 8.42374273668671 -7.40999985
131.366520175266 0.329707400995603 -7.77999878
131.080089368979 0.236589764717246 -7.77000046
168.061406542621 8.47889163299381 -7.38000107
167.76630540484 8.46946929811759 -7.5
132.730470769457 0.327341414067697 -7.86000061
170.13578483858 8.46115267572526 -7.45999909
169.84828473104 8.36427799487795 -7.36000061
172.540667135137 8.46306686615437 -7.45000077
19.5281498007806 0.315000236021607 -1.93000031
137.121816816294 0.230942308482278 -7.84000016
178.085453358834 8.53793430175765 -7.34999848
177.511406523536 8.46169364258566 -7.40999985
139.008255942703 0.351982157324451 -7.90999985
138.696045984876 0.282447109345136 -7.95000077
138.387043930807 0.224183195072649 -7.97999954
179.443104066977 8.39927438946239 -7.45999909
139.846510100918 0.214939200919624 -8
306.317125936625 8.386915377344 -1.45000077
182.217101130705 8.44234367411745 -7.34000016
141.516254845419 0.259565994557378 -7.93000031
303.526973432633 8.40124208210847 -1.75
185.026501057249 8.49564377159394 -7.34999848
20.487466843514 0.375 -1.97999954
184.749693962238 8.43633953643606 -7.32999802
143.090484014001 0.311070795420236 -8
142.809399713978 0.236738381986585 -7.97999954
27.37834952575 8.49005576226671 -2.34999848
300.231325295 8.46602732215965 -2.0699997
299.974834923794 8.47810693381169 -2.02000046
187.87890487685 8.4717223359208 -7.29000092
187.581665136563 8.45478591190668 -7.32999802
144.544603677847 0.283041578422499 -8.02000046
297.004460201963 8.43000844076214 -2.22999954
191.103631367381 8.50022712818042 -7.22000122
190.831101477381 8.45595107129832 -7.18999863
190.557502286129 8.40791796984727 -7.16999817
21.4253978611892 0.359858872599528 -1.99000168
189.988801957095 8.35046253352 -7.25999832
146.306656094509 0.309519231128314 -8.00999832
146.020225288221 0.216401594849949 -7.95999909
293.790426723962 8.43907409419195 -2.63000107
293.525381942732 8.42109734929244 -2.49000168
194.47863964067 8.48595987032368 -7.11000061
194.205040449417 8.43792676887262 -7.11000061
147.776931198619 0.224094024711044 -7.97000122
197.943816983613 8.44602938239711 -7.09000016
150.158057024671 0.370856550530776 -7.99000168
149.905959779946 0.284212682504909 -7.95999909
149.605512135901 0.256005124783969 -8.04000092
286.226028411144 8.34605157296595 -3.13000107
285.171079871021 8.40668147416636 -3.0699997
284.91993600608 8.43754630866312 -3.09000016
29.0503487942272 8.42844498708866 -2.43000031
284.660237731115 8.43835478660833 -3.04999924
202.502437711784 8.4807225977521 -6.97000122
22.5812084834956 0.311136187018738 -2.13999939
201.67190050528 8.41656155023215 -7.06000138
151.693791348148 0.287107746911674 -8.06000138
151.411637746872 0.209018288909072 -8.02999878
151.107982199068 0.169539597481305 -8.09000016
281.064257870906 8.36118081098488 -3.40999985
280.516943566931 8.37886626603648 -3.34000016
23.0479774290924 0.352927363157459 -2.20000077
280.016794439554 8.44811002416789 -3.45000077
205.82493430221 8.39611181397081 -6.97999954
153.65863723043 0.341156875425647 -8.11000061
275.694347358784 8.32995335035092 -3.68999863
275.141570627074 8.4426052405115 -3.93999863
23.5426641287349 0.378650040135018 -2.3199997
274.879733749604 8.43589962931883 -3.86999893
274.620035474639 8.43670810726404 -3.84000016
30.3541866753155 8.4431878202073 -2.75999832
273.824785209481 8.49652953051921 -3.90000153
273.535030577965 8.50589241848771 -3.88000107
212.643502050443 8.49427649271601 -6.77000046
212.348400912663 8.48485415783978 -6.79000092
211.50717069363 8.3831226646304 -6.72000122
155.798474745757 0.32509432095526 -8.02000046
268.110469780474 8.39680734279134 -4.18999863
24.3272213813637 0.281258171190401 -2.41999817
267.820715148958 8.40617023075983 -4.20000077
267.255106802213 8.47373758609307 -4.32999802
266.990062020983 8.45576084119357 -4.25
219.076915512712 8.4949304087011 -6.59999848
31.288909789232 8.41677555909999 -2.70999909
218.527578527701 8.39135011666113 -6.43000031
157.440417657683 0.272037955800486 -8.09999848
157.164679863924 0.216490765211547 -8.09000016
24.8411555035586 0.37460765040894 -2.38999939
259.114407130121 8.41071197451089 -4.77000046
257.759010945953 8.44313431799034 -4.81000138
257.47781072446 8.48255356251039 -4.90000153
257.188056092944 8.49191645047887 -4.88000107
31.7202758720126 8.44833592241727 -2.70999909
255.829452005017 8.5130676602515 -4.91999817
255.27786049603 8.51572493702732 -4.91999817
25.1084548087638 0.286346826492641 -2.45999909
254.988105864514 8.52508782499581 -4.91999817
228.778059358568 8.44686758379619 -6.11000061
228.490443329557 8.46374456090256 -6.18000031
227.63305767026 8.41940905711273 -6.18999863
226.813213476286 8.39281845528222 -6.25
225.670350390484 8.37287401773664 -6.36000061
25.581639561878 0.350680270045022 -2.47999954
159.801226759929 0.347416634810295 -8.09000016
159.486878199596 0.270367497693095 -8.02000046
159.211140405838 0.214820307104156 -8.0699997
161.165293275591 0.231298989928697 -8.13999939
163.881316228721 0.298991183768188 -8
163.584076488435 0.282054759754076 -8.09999848
26.0270224824165 0.317330554804876 -2.45000077
163.310477297182 0.234021658303029 -8.11000061
163.031531599665 0.167203334007263 -8.07999802
165.83012259221 0.29668464374801 -8.04999924
165.559731304716 0.259922676003797 -8.11000061
165.27757770344 0.181833218001203 -8.00999832
168.248905805054 0.347440413573389 -8.11999893
167.969960107537 0.280622089277629 -8.09999848
167.664165957227 0.23362930871197 -8.09999848
170.410245266909 0.292767092528188 -8.02000046
170.109797622863 0.264559534807241 -8.04999924
169.83940633537 0.227797567063022 -8.07999802
172.292523109777 0.285027105140899 -8.09000016
172.016785316018 0.22947991455196 -8.0699997
171.716337671973 0.20127235683102 -8.09999848
26.802909403552 0.303633987262399 -2.54999924
174.517067267024 0.33826775570966 -8.09999848
173.990301529794 0.199833741663796 -7.97999954
33.7784987277081 8.48799295456826 -2.91999817
176.895217032257 0.246255831915193 -7.82999802
176.610808907005 0.274403942728392 -8.04999924
176.31036126296 0.246196385007452 -8.09999848
27.2621932403784 0.319125851418517 -2.5699997
179.081150422929 0.277994535955672 -8.04999924
178.807551231676 0.229961434504632 -8.04999924
301.574751101209 0.172101759204751 -2.25
301.320399332509 0.191695459994692 -2.22000122
301.072463371326 0.233831428198273 -2.27000046
27.6506713515726 0.31415608993175 -2.65000153
300.793401752339 0.280764761856205 -2.29000092
300.249295352123 0.309721350614624 -2.20999909
182.281167063173 0.333838961083296 -8.02000046
182.002221365656 0.267020636787529 -7.95000077
297.669537343992 0.264167185216196 -2.59000016
297.413046972786 0.276246796868237 -2.54000092
185.391130555232 0.301594958327045 -7.88000107
28.0766909280887 0.326931230404312 -2.63999939
184.822430226199 0.244139521999771 -7.97000122
184.521982582154 0.215931964278831 -7.97000122
294.753928829 0.180174649275359 -2.8199997
293.931830111049 0.259821616260653 -2.81000138
293.119355104374 0.37328198436643 -2.88000107
28.4480602192364 0.261848755814452 -2.66999817
188.706026115418 0.304436520516853 -7.84000016
188.416271483902 0.313799408485338 -7.95000077
188.142672292649 0.265766307034292 -7.91999817
187.870142402649 0.221490250152187 -7.91999817
290.769354936127 0.221722093092354 -3.13000107
290.233802945934 0.280735038402328 -3.13000107
289.977312574728 0.292814650054369 -3.09999848
289.722960806027 0.312408350844309 -3.09000016
191.775240238397 0.243176482094442 -7.74000168
35.929029255564 8.5095008457873 -2.99000168
191.515541963432 0.243984960039655 -7.86000061
190.676450346905 0.149767555968169 -7.88999939
29.2679044132112 0.288439357644963 -2.81000138
287.148665225631 0.171887750336908 -3.3199997
286.874950112909 0.237606306839539 -3.43999863
286.623806247967 0.268471141336307 -3.45999909
36.3883130923904 8.52499270994342 -3.02000046
285.823209476545 0.309507341746767 -3.36999893
196.609598760326 0.333416888038365 -7.54999924
196.056937950086 0.332317120245237 -7.75999832
195.754351703535 0.296595473386412 -7.72999954
195.450696155731 0.257116781958637 -7.70999909
195.187789977007 0.246654126197023 -7.81000138
283.148051813965 0.157079525619751 -3.66999817
282.609291920013 0.204821337222883 -3.66999817
282.322745192255 0.225455358898217 -3.66999817
282.041544970762 0.26487460341825 -3.72999954
281.762483351775 0.311807937076183 -3.77999878
281.221584855317 0.352035659541429 -3.77000046
200.345167390763 0.330248367856009 -7.65000153
200.0383039392 0.279498542721414 -7.59999848
277.92830716313 0.19683167282311 -4.00999832
277.638552531614 0.206194560791603 -3.99000168
37.6857351659612 8.5171932756484 -3.15000153
277.359490912627 0.253127894449535 -4.0699997
277.097654035156 0.246422283256863 -4
276.816453813663 0.285841527776897 -4.07999802
276.562102044963 0.305435228566823 -4.09000016
37.9487572661548 8.41390427345632 -3.18999863
276.28090182347 0.344854473086856 -4.13000107
276.017995644746 0.334391817325256 -4.06000138
31.347629215435 0.289485623221125 -2.90000153
205.181780436668 0.31425120498414 -7.5
204.889887202646 0.31610000381474 -7.5699997
204.580885148577 0.257836089542246 -7.47000122
203.992821475522 0.246505508927677 -7.59999848
203.720291585522 0.20222945204558 -7.57999802
272.913610501892 0.157917727018828 -4.38000107
272.342655648882 0.206699859507368 -4.41999817
31.798242720768 0.388672788779384 -2.95999909
271.798549248666 0.235656448265787 -4.43000031
271.538850973701 0.236464926211 -4.38999939
38.6838948182096 8.37119167024769 -3.25
271.293053615024 0.286114983552481 -4.52000046
271.031216737554 0.279409372359809 -4.43999863
270.746808612302 0.307557483173015 -4.47999954
32.1267240403292 0.287060189385478 -2.99000168
210.410079497526 0.304555414332321 -7.41999817
210.12032486601 0.313918302300814 -7.49000168
209.87357412755 0.24605965711966 -7.38999939
209.31342820854 0.218660577343934 -7.45000077
209.021534974518 0.220509376174541 -7.49000168
208.723225932978 0.199815907591479 -7.52000046
265.811588008189 0.205409861609469 -4.90000153
265.537988816936 0.157376760158443 -4.77000046
265.269620210478 0.241880539505787 -4.97999954
265.007783333008 0.235174928313129 -4.93000031
264.469023439056 0.282916739916247 -5.00999832
264.207186561585 0.276211128723589 -4.95000077
263.94748828662 0.277019606668803 -4.93000031
263.078224392072 0.305108270574267 -4.90999985
262.82708052713 0.335973105071035 -4.99000168
262.551226811902 0.394177572435781 -5.11000061
217.946675977768 0.299894776765783 -7.0699997
217.395084468781 0.302552053541605 -7.18000031
33.3972976611072 0.299086298820561 -3.09999848
217.093567523483 0.270587451251722 -7.16999817
216.508711754186 0.270528004343981 -7.25999832
215.973275685463 0.215789291700262 -7.20000077
215.151292888982 0.181684600731864 -7.29000092
258.162367131981 0.15683579329803 -5.32999802
257.386480210846 0.170532360840498 -5.3199997
256.547272672848 0.190066614722697 -5.32999802
33.8040698150709 0.244234637052142 -3.16999817
256.27141895762 0.248271082087457 -5.45999909
256.006374176391 0.230294337187957 -5.41999817
255.748814503932 0.238616904271056 -5.45000077
255.467614282439 0.278036148791089 -5.50999832
34.3781166503689 0.320475296224133 -3.13999939
255.202569501209 0.26005940389159 -5.45000077
254.948217732509 0.279653104681516 -5.5
254.663809607257 0.307801215494735 -5.56000138
254.112218098271 0.310458492270557 -5.54999924
34.6980435599068 0.188806340278682 -3.18999863
253.560626589284 0.313115769046378 -5.52999878
253.300928314319 0.313924246991591 -5.52999878
253.032675629331 0.28467636838525 -5.45000077
251.138519551211 0.364840523467849 -5.63999939
229.561107402826 0.353046256972939 -6.59999848
226.841876545937 0.27408292942662 -6.74000168
35.061811820814 0.211176211659907 -3.27999878
226.552121914421 0.283445817395113 -6.79000092
226.281730626927 0.246683849650894 -6.75
225.995183899169 0.267317871326214 -6.82999802
225.431830076401 0.228647657843653 -6.8199997
225.168923897677 0.218185002082046 -6.82999802
35.5145639286528 0.317877466356051 -3.3199997
224.912433526471 0.230264613734087 -6.88999939
224.625886798714 0.250898635409407 -6.97999954
224.360842017484 0.232921890509908 -6.97999954
224.067879482209 0.231013644771566 -7
37.0762854678472 8.43072180365497 -3.11000061
35.8976955335825 0.294122482024569 -3.18999863
35.8891411235592 0.264066125473021 -3.22999954
34.8073441306437 0.344521570403525 -3.11000061
30.6470332891204 8.55884772389932 -2.61000061
34.4660311960476 0.401049634970112 -3.07999802
30.0557617123058 8.53624600957793 -2.47999954
29.0201765162056 8.55075105506562 -2.5
25.1074776502178 8.61651716909445 -2.09999848
36.2690648247302 0.229040007434708 -3.3199997
27.8556034196988 0.349241654877799 -2.56000138
27.5679873906883 0.366118631984176 -2.5
26.6741295673226 0.30779527080395 -2.59999848
20.5650123623108 8.52442796431992 -1.70000077
20.1904351674044 8.57823930520295 -1.75999832
36.7443881803502 0.300887540124976 -3.43000031
23.4225546239988 0.299116022274429 -2.16999817
19.6904019614974 8.53373140538068 -1.68999863
22.8537383734953 0.355412243900843 -2.13000107
21.818153177395 0.369917289388536 -2.09000016
17.7780677620779 8.55002580279124 -1.54999924
20.0206978979172 0.33320882386128 -1.81000138
19.4541361713896 0.283267476671892 -1.86999893
19.1482260996096 0.35002635405992 -1.77000046
17.2798491730295 0.406607920843469 -1.66999817
13.795748393181 8.48533567779243 -1.16999817
17.0115964880415 0.377360042237138 -1.63000107
16.7959714073862 0.304704031601654 -1.61000061
13.1700273333331 8.57001185317223 -1.18999863
16.467490087825 0.406316630995559 -1.5
11.5613486817178 8.62578494201056 -1
11.0088037929481 8.51093351626375 -0.97000122
13.3082228166617 0.379488241534102 -1.29999924
9.31744118044847 8.61866914715451 -0.790000919999997
8.75408735767963 8.57999893367195 -0.75
8.15853857585341 8.54236904107478 -0.759998320000001
10.641503642635 0.370868439912318 -1.02000046
6.69693380323706 8.54409894608991 -0.66999817
38.5290118447931 0.29251147082491 -3.5
6.42642659427314 8.62108863629938 -0.560001379999996
7.68705251812777 0.492877273350597 -0.66999817
6.87587865564627 0.382591370117944 -0.680000309999997
4.22733760291904 0.437841326168196 -0.349998479999996
3.73799740954111 0.430903872035353 -0.439998629999998
3.01687669524416 0.408706396686564 -0.27999878
1.80095335983465 0.474537902313904 -0.16999817
1.14529186490534 0.454016829763283 -0.200000769999995
0.899610427698505 0.389915229151074 -0.13999939
-0.11233421936764 0.373323597201832 0.0200004599999986
4.10636686110711 8.57472599295573 -0.200000769999995
5.33298320904572 8.54646493301782 -0.430000309999997
6.27519143173259 8.54635198389312 -0.450000769999995
6.66901604919133 8.56016744525107 -0.569999699999997
6.99417354352371 8.56103537010402 -0.630001069999999
8.27864808058951 8.62190305893537 -0.729999540000001
8.66391828802499 8.60566216374177 -0.819999699999997
-0.420382893653472 0.432568385451973 0
-0.046875 0.375 -0.0200004599999986
0.882385686181869 0.443554174001669 -0.0799980199999979
1.24615394708907 0.465924045382893 -0.270000459999999
11.7523798335561 8.61202892756035 -1
1.89337695346519 0.342637103428279 -0.159999849999998
14.8043692150183 8.60440783398854 -1.20999909
4.34007792035487 0.377324374092495 -0.450000769999995
4.86482097654889 0.394492641046781 -0.47000122
5.40239564777783 0.456745442828386 -0.490001679999999
16.3517499308076 8.6757381785815 -1.36999893
5.78552725270749 0.432990458496903 -0.61000061
6.66548415978544 0.442472240280866 -0.599998479999996
7.33195458871393 0.386812100567232 -0.75
18.6473316566268 8.52193713888577 -1.65000153
19.2835138860635 8.70233472510278 -1.77000046
8.47160977075663 0.395485404405979 -0.840000159999995
20.9340112080124 8.67933471649955 -1.72000122
21.3548001997341 8.55957297617371 -1.82999802
21.8741967496636 8.55795602028328 -1.88999939
11.8851128891501 0.516471751031193 -1.25
12.3272879059299 0.471850902084217 -1.16999817
12.7812252364918 0.468557543395618 -1.22000122
24.3616470856339 8.62165932661365 -2.13999939
26.3942067112595 8.57114728911 -2.18000031
15.1206483136802 0.468795331026564 -1.47000122
15.4673077545409 0.431052489304695 -1.45999909
27.6873515798187 8.5483196765392 -2.27999878
16.2625580196988 0.37123106604951 -1.52999878
16.6757459811801 0.338921671694752 -1.65999985
28.8097820203448 8.61063192522854 -2.54999924
17.3152520358456 0.416838733664911 -1.70000077
18.1341428500377 0.325920632972792 -1.70999909
18.7553548619337 0.453719595224601 -1.70000077
31.3209888268192 8.5294868961683 -2.54999924
19.6600216192987 0.435861744140573 -1.8199997
20.096850129814 0.372455672348881 -1.93000031
32.6880314032992 8.6521437009009 -2.65999985
20.6484416388008 0.369798395573062 -1.93999863
21.2311588055921 0.362343753342912 -1.95000077
33.6282169449504 8.53076500468463 -2.79999924
21.8459550099707 0.467600448181062 -2
34.1830163576959 8.53937886161564 -2.8199997
22.3299486970841 0.455752679469188 -2.07999802
35.2346410725898 8.5812294846621 -2.88999939
23.4739970056085 0.365702503630021 -2.20999909
24.078100197458 0.433388752778737 -2.18999863
24.3379143938928 0.318828616879834 -2.25999832
25.0900448445241 0.449980384727979 -2.31000138
37.9753738760074 8.62158204563359 -3.04000092
25.3874005062809 0.353165150788405 -2.40999985
26.0923657803141 0.432758615556731 -2.43000031
27.3327671230704 0.567090792968776 -2.50999832
26.9916860314145 0.396115541627987 -2.63000107
28.2354111993997 0.427967194793174 -2.61999893
28.8631549402832 0.464556766504956 -2.61000061
29.4480107095804 0.464616213412692 -2.66999817
29.8279344107513 0.429590095374379 -2.81000138
30.3773873172323 0.419418729460673 -2.79000092
31.2681531583094 0.352719298980383 -2.8199997
31.8722563501589 0.420405548129099 -2.90000153
32.42170925664 0.410234182215393 -2.93999863
33.8156002859128 0.513065443217895 -3.04999924
34.1785310885072 0.304174954122799 -3.04000092
37.0833306695003 0.46434870232788 -3.31000138
37.5459383315555 0.377360042237139 -3.34000016
38.7703001555182 0.455336551115033 -3.40000153
-0.328075221493013 0.414419244520037 0.0999984700000027
0.169819381908196 0.451413055204427 0.0299987799999997
0.96174582183733 0.4940721561961 -0.0299987799999997
1.71624671791464 0.405234697274756 -0.180000309999997
4.8529427412968 0.466916808742092 -0.439998629999998
4.06240958826774 8.53443882358274 -0.36000061
6.71704246286526 0.39530706368277 -0.659999849999998
11.6623266853716 8.52394049967648 -1.02000046
13.0163295826396 0.381337040364706 -1.29000092
13.3114307204204 0.390759375240932 -1.29000092
15.7744951917509 8.58822638570268 -1.24000168
15.8872355091867 8.52770943362697 -1.31000138
39.1117290115844 0.285056828594759 -3.5699997
18.0238651207548 8.50037574544976 -1.61000061
18.5751326440945 0.39129439741056 -1.68999863
18.7908736462199 0.350198750092356 -1.75999832
19.2823524421036 0.364650293363085 -1.79999924
39.4529260247104 0.342280421981863 -3.65000153
19.9412218407917 0.396442499620537 -1.81000138
22.7829326478631 0.334950618257958 -2.15000153
23.6360411021482 0.364257943772025 -2.18000031
23.7445042145724 0.288712813420551 -2.29999924
24.3904260767555 0.38917214280437 -2.18000031
24.7970823092491 0.448072138989639 -2.29000092
26.5356100983468 0.391894811178699 -2.36999893
27.9811753521696 0.333809237629419 -2.54000092
29.7478289594901 8.48173913987438 -2.52999878
29.3773209054183 0.33040292981612 -2.5699997
31.5472147772966 0.305785965322458 -2.84999848
33.1141669012854 8.55116718341978 -2.70000077
40.4992042333397 0.365345822183604 -3.61000061
36.0971651739741 0.424174482079589 -3.18999863
35.4436422815506 0.411167498666854 -3.27999878
35.2086538568728 0.38463634374408 -3.18999863
34.8019976243792 0.325736347558809 -3.09000016
36.4559109142639 8.53418320187948 -3.02000046
33.0227204662008 0.352897639703591 -3.04000092
34.3332981404537 8.49660681149927 -2.8199997
28.2161637768473 0.360340392552194 -2.54000092
28.0928463683525 0.269535240984774 -2.5699997
41.6496683493816 0.297837913758095 -3.77000046
27.4971816650562 0.345657006341292 -2.52000046
26.3274701264619 0.345538112525819 -2.41999817
25.5161803425103 0.349003867246854 -2.34999848
23.6113312518612 0.391597576640016 -2.20000077
21.5830488312472 0.457137792419447 -1.97000122
21.2772546809373 0.410145011853787 -1.99000168
20.7911223913181 0.414478691427775 -1.99000168
20.0120275664239 0.416904125263421 -1.81000138
42.3193466820688 0.253448907751293 -3.77999878
24.8724892255401 8.58998601417168 -2.04000092
24.5720415814947 8.56177845645073 -2.04000092
17.5009366814195 0.38429749636998 -1.75
16.3065152925382 0.411518235422499 -1.49000168
16.0468170175735 0.412326713367715 -1.43999863
21.2238817609988 8.55622017057737 -1.81000138
15.0713445345763 0.409722938808858 -1.47999954
43.0351208901012 0.256861160255364 -3.84999848
13.3082228166617 0.379488241534102 -1.29000092
18.7127908759944 8.52361354168393 -1.49000168
18.6740641879495 8.61586325310935 -1.52000046
18.2941404867786 8.65088937114766 -1.5699997
43.3966346270325 0.385468600452391 -3.88999939
12.4829161949522 0.447864074812561 -1.18000031
10.9752155469907 0.401792721316816 -1.09999848
10.3570955173833 0.399016550725524 -1.00999832
16.1576267966806 8.56447140137119 -1.47999954
42.4988235843023 8.41854113225977 -3.5
6.25241211977433 0.361029976681936 -0.659999849999998
6.05068795540686 0.337215545442716 -0.560001379999996
11.3994205066481 8.51347784391487 -1.02000046
11.1729864919937 8.51700304554364 -0.97000122
42.8507136099574 8.5133351713363 -3.50999832
9.95920175908996 8.59034864030887 -0.849998479999996
2.57684028097014 0.460841334771427 -0.270000459999999
2.32046583123421 0.359169288469785 -0.299999239999998
2.21307202006294 0.438471463390202 -0.229999540000001
7.95135198375131 8.61352104494453 -0.579998019999998
1.35782496327198 0.401650048738248 -0.119998930000001
1.09812668830724 0.402458526683464 -0.200000769999995
7.5382799437402 8.5320787813456 -0.61000061
6.94570722273254 8.73322333836264 -0.560001379999996
-0.0598225365049978 0.443667123126368 0
45.6127402957262 0.294901236515917 -4.00999832
6.50269474763996 8.5465838268333 -0.549999239999998
-0.319520811469739 0.444475601071583 0.0699996900000031
4.43152435543949 8.57559391780868 -0.36000061
3.39807776184507 8.59761305243426 -0.200000769999995
45.9647462428514 0.275943617638762 -4.0699997
301.681075611128 0.0890425397153943 -2.25999832
301.350455689061 0.183141049971412 -2.25999832
310.725464882038 8.46438064281536 -1.31000138
297.877793237347 0.196772225915368 -2.56000138
46.2770721221489 0.231727007664396 -4.09000016
294.444926774931 0.121910735002872 -2.84000016
294.068210977519 0.168207986748017 -2.88999939
304.732203755514 8.2978401307917 -1.70999909
291.704078050043 0.195309831985072 -3.06000138
46.5967671887466 0.327561367626319 -4.13000107
290.463560785817 0.174729312526695 -3.24000168
290.080429180887 0.198484296858184 -3.15000153
289.498897236819 0.0959443257035996 -3.22999954
288.078041833283 0.126690266384885 -3.29999924
286.044412906405 0.173445259319594 -3.57999802
283.393849172642 0.10742946827827 -3.75
293.986920303535 8.33035164463276 -2.5699997
282.109374635576 0.0465617794469192 -3.77999878
280.685195406811 0.179788244375076 -3.90999985
290.945739856072 8.26179152594031 -2.77999878
289.604244588191 8.34305544881603 -2.86999893
289.243568309573 8.44570836909533 -2.90000153
288.952976219744 8.22381089658751 -2.90999985
287.447298252818 8.29900529018333 -3.02999878
276.20379621179 0.188098922076621 -4.20999909
286.524337452683 8.36674504154903 -3.02000046
275.744512374964 0.172607057920502 -4.20999909
286.043551669329 8.38986394396771 -3.20000077
274.760485481943 0.139946926810098 -4.34000016
274.205686069198 0.131333069879092 -4.49000168
284.510071869827 8.36737517877103 -3.34999848
273.378240844982 0.192194814019673 -4.36000061
271.777047302137 0.274267214840593 -4.59999848
281.799395422961 8.31846820777625 -3.5
270.659009988093 0.113231486473354 -4.65999985
267.317265975115 0.130215468013646 -4.90999985
266.824717877978 0.11200688017398 -4.91999817
265.877163149027 0.0933346064539516 -4.88999939
265.395308064419 0.112696464303725 -4.93000031
265.067896046111 0.21806610826657 -4.97999954
264.417696978916 0.102578600606976 -5.0699997
274.556830779247 8.32879413565007 -3.91999817
273.857212011479 8.26798589372645 -4.06000138
263.345639618747 0.103095788704295 -5.15000153
263.051491860749 0.211182156350689 -5.13999939
261.993451338338 0.146789265890576 -5.24000168
260.919255375662 0.139792364849996 -5.29999924
50.7143981228605 0.29688081854354 -4.32999802
270.036820817651 8.31560286682334 -4.27999878
269.619355651158 8.33288408290234 -4.27999878
257.107418591858 0.21746569449843 -5.49000168
256.487275881215 0.0934237768155707 -5.65000153
266.755073596306 8.42922968627079 -4.41999817
253.546841594466 0.150522531696411 -5.75
262.440227545776 8.22362066648275 -4.74000168
252.237657207113 0.116994475733066 -5.72000122
251.384432831358 0.201438808172697 -5.75
249.772662197454 0.132189105350492 -6.00999832
247.99873154554 0.178135620340002 -6.04999924
257.239730317494 8.33099961592709 -5
246.533918869165 0.168594391648299 -6.13999939
256.340410066393 8.36764268985583 -5.02999878
245.031564727468 0.141308260997264 -6.18999863
244.549709642861 0.160670118847038 -6.20999909
51.9335293620288 0.242320446623031 -4.45999909
243.03868516967 0.21707928959814 -6.36000061
252.689663999346 8.32636275712365 -5.31000138
242.538651963763 0.172571389775869 -6.36000061
242.079368126937 0.157079525619751 -6.34999848
251.784997241981 8.34422060820768 -5.32999802
241.164008357043 0.137366931014342 -6.36999893
240.612532769526 0.0262725498364783 -6.38000107
240.289397956229 0.146670372075101 -6.41999817
239.789364750322 0.102162472252823 -6.47999954
249.549644150735 8.36716116990317 -5.45000077
239.29467805068 0.0764397952752641 -6.45999909
248.570963763979 8.35328626163749 -5.38000107
237.729003292121 0.0549913509639534 -6.57999802
237.280412467824 0.0770699324972749 -6.52999878
246.494446865514 8.36351112976816 -5.65999985
236.414356477034 0.116429730109567 -6.54000092
234.952751704417 0.118159635124699 -6.70999909
243.900787941096 8.26911538497344 -5.77000046
233.979417823926 0.123069949703727 -6.66999817
243.494015787132 8.32396704674186 -5.75
53.9885443139655 0.270706345067182 -4.68000031
233.454674767732 0.105901682749448 -6.77000046
232.952502959319 0.0538796937892779 -6.77000046
232.681995750355 0.130869383998751 -6.79999924
232.244213860057 0.0767667532678128 -6.75999832
241.83496405516 8.31691069879355 -5.8199997
231.279434389589 0.111733424398389 -6.79999924
239.763793662959 8.34592078976893 -5.77999878
229.252221270228 0.18103068474676 -6.95000077
237.664821438183 8.27724772195179 -6.07999802
54.6443217303649 0.177475759664115 -4.63000107
227.81211844414 0.144149823187072 -7.09999848
227.372197951336 0.0825331033182489 -6.88000107
235.123674196627 8.25319550308162 -6.09999848
225.417929160113 0.179806078447393 -7.07999802
224.852436734838 0.133621775826947 -7.11999893
232.021195813338 8.31173881782048 -6.32999802
219.990160458863 0.0594498690441806 -7.38000107
219.618791167716 0.124532343634045 -7.34000016
217.809573574456 0.0464963878484151 -7.36000061
217.41670233678 0.1501896290131 -7.40000153
225.79057581669 8.33865637764354 -6.47999954
224.829120171451 8.27114252452727 -6.47999954
215.181349245534 0.173130190708592 -7.50999832
54.5060103255663 8.48175102925593 -4.29000092
214.653398285581 0.144690790047471 -7.54999924
223.902951467558 8.32761114218612 -6.5699997
214.248764734123 0.20705654095378 -7.50999832
213.677925802584 0.142087015488621 -7.47999954
213.043766254183 0.0829551763631723 -7.50999832
212.562980470828 0.106074078781881 -7.57999802
212.071501674944 0.0916225355111503 -7.56000138
211.696924480038 0.14543387639418 -7.54000092
210.756970781327 0.0393092567030787 -7.66999817
219.027727655078 8.32210635852972 -6.8199997
209.456224882527 0.149589215244959 -7.63000107
208.412201197874 0.020286246227415 -7.65999985
216.365285686063 8.32851473518371 -6.84000016
204.900812058115 0.126167133596796 -7.72999954
202.72461830019 0.0144901727231083 -7.82999802
202.361803419065 0.10962900386452 -7.90000153
202.082741800078 0.156562337522439 -7.86000061
201.533404815067 0.0529820454824598 -7.84999848
201.238187755816 0.157311368559925 -7.90000153
200.087839561244 0.111067619031744 -7.99000168
209.159193206418 8.35282852044791 -7.06000138
207.642938148433 8.27670081040061 -7.11999893
207.282261869814 8.37935373067991 -7.09000016
197.737723471527 0.0732593857113609 -7.95999909
206.817631526724 8.34507664367908 -7.13999939
197.223789349332 -0.0200900935071776 -7.90999985
206.273641047977 8.26028157448381 -7.20000077
196.475704260772 0.0912896328278247 -8.02000046
205.365766386853 8.266868291861 -7.18000031
196.117166584659 0.201456642245 -8.02999878
195.587077022201 0.165503152446001 -8.02999878
59.6320540173405 0.349966907152186 -4.95999909
195.010891584397 0.0817484041361222 -7.95000077
202.425332100104 8.32396704674187 -7.18999863
60.090384474384 0.247950068785673 -5.09000016
201.03464897459 8.23240691944619 -7.15000153
191.695996024211 0.0789068419463216 -8.09999848
200.146021736019 8.30662043906437 -7.34000016
189.952121728849 0.116298946912544 -8.07999802
198.766031623034 8.25263075745813 -7.25
189.506738808311 0.149648662152694 -8.15000153
189.012052108668 0.123925985175128 -8.11000061
197.880612288221 8.33811541078313 -7.29999924
197.37523257605 8.27482228811615 -7.29000092
196.935196161776 8.32695722620101 -7.45000077
187.621368983154 0.0323658578794631 -8.11999893
187.386148715536 0.233338018864061 -8.13999939
196.042407639663 8.27239090958973 -7.34999848
61.4897379313915 0.255814894679205 -5.09000016
186.847504743054 0.167328172513515 -8.13999939
186.328108193125 0.168945128403942 -8.11000061
60.0455659644688 8.4240815840608 -4.61000061
195.049710415149 8.32342607988146 -7.34000016
185.798018630666 0.132991638604943 -8.18000031
185.345150601357 0.14004204186248 -8.18999863
191.289431934425 8.35393423293181 -7.61000061
189.172165666879 8.33514306539632 -7.56000138
178.859225456226 0.0690445999528474 -8.36999893
178.436413783469 0.0675405931871121 -8.22000122
177.982476452907 0.0708339518757138 -8.24000168
177.496344163288 0.0751676314497028 -8.22999954
175.648399881983 0.0893813870894827 -8.36000061
183.802255154757 8.30391560476236 -7.52000046
174.410974600045 0.193823659291646 -8.22999954
181.948964367187 8.29934413755743 -7.61000061
172.986911292751 0.213298466266104 -8.32999802
172.675654714706 0.26127212080941 -8.25999832
171.986960802407 0.0105310086678624 -8.27999878
180.664489830122 8.23847644872608 -7.59000016
171.568426334661 0.0240551801779044 -8.40999985
170.79028488955 0.143989316536186 -8.36000061
62.1660401357732 8.45414388530312 -4.72999954
179.21571667254 8.28529088856853 -7.57999802
170.276234845885 0.164391495271326 -8.29000092
168.327428482396 0.166698035291504 -8.27000046
167.753381647098 0.0904573761195177 -8.43999863
167.592290930342 0.209410638500139 -8.29999924
167.2048821204 0.218137444555851 -8.27999878
166.676931160447 0.189698043894738 -8.36000061
166.144702995483 0.146230464957847 -8.38999939
165.802320759634 0.199001484955482 -8.27999878
165.231481828095 0.134031959490323 -8.32999802
163.816088852294 0.0698114650626503 -8.41999817
162.913560697435 0.0951834052845594 -8.40000153
162.102154992013 0.212400817959279 -8.34999848
