ply
format ascii 1.0
comment File exported by Rhinoceros Version 7.0
element vertex 1029
property float x
property float y
property float z
end_header
63.0335028331923 9.22541674778244 -5.73999977
68.5238362395148 0.392364951895311 -6.23999977
71.1498115245901 0.854102492149424 1.42000198
113.357119809513 9.51440885348204 -8.67000008
62.2214045038795 9.33773524204054 -5.65999985
112.35234117857 0.886121402239138 -0.569999699999997
67.7177733550952 0.409751705839629 -6.20999908
70.8058262409516 0.783530549748964 1.5
112.746075248856 0.902313319507894 -0.590000150000002
61.737592334513 9.46417423890916 -5.68000031
61.4048755369984 9.31748770279156 -5.71999931
69.6309036795696 0.75753537385867 1.56999969
60.7153001623965 9.4038415918115 -5.52999878
66.18236398272 0.370482034669359 -6.13999939
65.9174325166214 0.350906088078418 -6.03999901
60.0650074919808 9.39818116250644 -5.51999855
65.5590389221205 0.345158451437105 -6.0699997
116.915972352098 0.500856294287471 -8.94999886
114.958779495891 9.44200105240012 -8.63999939
59.6848793288945 9.43091382638897 -5.48999977
117.16359988718 0.69147857490933 -8.96999931
65.1323017971249 0.443561428409326 -6.02999878
68.2648704283982 0.744143100590308 1.6800003
59.4123774004891 9.26748155833295 -5.40999985
117.484315584819 0.561742756054781 -8.97999954
58.9118194991842 9.3337056860923 -5.51999855
115.654878724553 9.49574005552591 -8.69999886
64.4089907540624 0.291973262980957 -5.93999863
67.2886290191123 0.849401343543151 1.61000061
112.87547064655 9.1820888733896 0.0299987799999997
116.045717174685 9.61815400106644 -8.68999863
58.5657409990534 9.25560688505318 -5.3599987
66.9477835602122 0.790119689100675 1.81000137
115.046171584972 1.00868369642019 -0.590000150000002
118.285145428008 0.525538855513816 -8.96999931
58.1149318843963 9.26745098768082 -5.3199997
118.754793491096 0.581436480634111 -9.05999947
115.948836422533 0.988758920484234 -0.599998470000003
119.227337174338 0.531112077482626 -9.09999847
63.4243764788073 0.367124071379163 -5.89999962
57.6413415929075 9.31401196151297 -5.3199997
116.421380105775 0.938434517332753 -0.599998470000003
62.9767071888886 0.390258461964792 -5.87999916
117.827219064728 9.60925789107973 -8.80999947
57.2455143061289 9.29029318560556 -5.36999893
56.9203679709211 9.28746297095302 -5.25
120.041772924727 0.543832758092948 -9.02999878
117.195242339148 0.921893770718985 -0.689998629999998
62.189239048316 0.357874627427276 -5.88999939
56.6221892455295 9.2649696023733 -5.19999886
115.326906559102 9.13284603354543 -0.0799980199999979
118.472278693913 9.59610117378813 -8.76999855
61.8496844022458 0.419868718533896 -5.73999977
56.2315949999816 9.26006797306253 -5.25
117.514353229462 1.0196557256853 -0.759998320000001
64.5345837436005 0.743584781300506 1.85000229
118.753711687366 9.55837967325859 -8.76999855
55.8959825823123 9.21960346521671 -5.22999954
121.003850227734 0.620911137129018 -9.1099987
115.873271018654 9.11470047960682 0.0100021399999974
119.023876194695 9.59677276644617 -8.75
61.1700867009379 0.308832268287605 -5.73999977
55.4692454573166 9.31800644218893 -5.15999985
118.060717689014 1.00151017174669 -0.72000122
121.301784748542 0.525892189478978 -9.09000015
60.6996362341876 0.36668353007775 -5.75
119.398771316551 9.545222955967 -8.87999916
58.6003488610876 8.91351421699133 2.56999969
118.408645201054 0.969623515194706 -0.739997860000003
63.3680340481876 0.747697039964849 1.95000076
116.5287967303 9.13917805550854 -0.0999984700000027
119.674168865111 9.60243319575124 -8.8199997
59.9268206090611 0.386987706010848 -5.62999916
54.034380266483 9.17374015007458 -5
118.721476441891 1.04480489424505 -0.809997559999999
121.916736943173 0.521108338156599 -9.03999901
120.035702284351 9.61947112035054 -8.8199997
59.2035095659986 0.235399540582478 -5.62999916
56.6599369323021 8.93416722226945 2.65999985
122.295260298934 0.71587344809494 -9.17000008
52.8649349509155 9.2840744370107 -4.95999908
58.0081432488611 0.369160410765118 -5.45999908
57.2455495016123 0.30958656366175 -5.44999886
56.8436867699405 0.38079952806812 -5.36999893
117.668378815897 9.15472895077139 -0.189998629999998
120.811657734215 9.61045723237542 -8.8599987
51.3172104841702 9.31715593023823 -4.84000015
56.1483899449404 0.213311638031887 -5.34999847
119.842219579057 0.992614061759967 -0.739997860000003
59.0641710894382 0.667435112311087 2.19000244
121.161678462747 9.58609743446211 -8.86999893
54.0150529088849 8.87097378986712 2.76000214
120.160039656542 0.969100271177191 -0.66999817
55.7433873885302 0.273234314480265 -5.3199997
118.348778920867 9.15201651410725 -0.119998930000001
121.494151055678 9.61527165434994 -8.8599987
50.1446253438642 9.41619992921636 -4.86999893
55.3415246568584 0.344447278886634 -5.30999947
49.9768540299851 9.16282475749359 -4.73999977
53.3584805889923 8.84273278464608 2.88000107
121.811971133163 9.59175786376717 -8.84000015
55.0514745928522 0.234549028631785 -5.25
124.04456153793 0.707823345438759 -9.15999985
57.9984097801507 0.684063066261111 2.35000229
121.220567924599 0.93365517063052 -0.86000061
49.1699887419031 9.29396039834834 -4.68000031
52.5411492184488 8.93623413230753 2.88000107
54.2092688289848 0.35524038885909 -5.15999985
56.7292226867039 0.785645087230876 2.29000092
48.4458752951782 9.2561211198304 -4.61999893
53.4890976106608 0.214942511388711 -5.14999962
123.145001329625 9.71974503127651 -8.96999931
47.3748809446601 9.25393192718378 -4.55999947
52.395322083311 0.247470189946598 -5.04999924
55.2736695355311 0.683622524959698 2.36000061
46.6748394875966 9.30265152301042 -4.51999855
120.327671150176 9.15309807741456 -0.209999080000003
123.446075675171 9.63601637158446 -8.87999916
51.6683130164314 0.315852939700437 -5.01000023
54.5788611196984 0.751159267382991 2.54000092
122.479777344752 1.02946348892698 -0.729999540000001
125.756184880065 0.564289787286712 -9.23999977
46.3030841904795 9.36549162144759 -4.46999931
120.60910414363 9.11537657688502 -0.180000309999997
123.787723537734 9.5815491391165 -8.90999985
49.699119060349 8.98057534284093 3.19000244
51.2010023744196 0.384994489448569 -5.05999947
54.1550196148575 0.743340216083436 2.44000244
46.0274424373357 9.19076906543359 -4.45999908
126.361961805064 0.643147388320132 -9.20999908
50.5255911060963 0.289011756479597 -4.92000008
124.452424519012 9.52238526266241 -8.89999962
126.693387789748 0.668558178888639 -9.19999886
45.1603622801444 9.33865043822675 -4.46999931
50.0862946821469 0.342253581619864 -5
127.138963863175 0.637896929664351 -9.32999992
53.0465915720616 0.723179884170711 2.56999969
122.05733103708 9.19105513392089 -0.229999540000001
125.170502520843 9.65515628149413 -8.88999939
44.9564480868175 9.18857987278696 -4.28999901
48.9872861135664 0.355964113581103 -4.8199997
127.51514979786 0.70762286473427 -9.36999893
43.8296695047584 9.33570244558583 -4.18999863
48.7749990542703 0.175786113586681 -4.76999855
125.60247268707 9.57557045111855 -8.95999908
124.655013305081 1.03675929620901 -0.840000150000002
127.871205971285 0.588331326507153 -9.20999908
43.5322931830292 9.19946019009567 -4.21999931
125.979461025418 9.53154749927804 -9.04999924
46.857647101328 8.79365535023413 3.26000214
128.19554990283 0.704910428070122 -9.23999977
51.2266093814947 0.710341425572003 2.70999908
47.9380263316337 0.315294620410637 -4.73999977
123.119952521628 9.16313689201287 -0.189998629999998
126.273697522409 9.65649946681021 -9.01000023
47.6707574444591 0.170679498951274 -4.69999886
42.4945460918041 9.20018841943783 -4.07999992
128.59531941801 0.626170605025096 -9.27999878
50.1472421650073 0.678044798370743 2.79999924
49.7692072184133 0.718304320891929 2.83000183
126.665094171619 9.54765220921055 -8.95999908
128.906057442355 0.693825125436768 -9.21999931
41.7560243342169 9.22717344667904 -4.13999939
41.3593946437758 9.31720355768206 -4.05999947
126.985007465596 9.53166527726643 -8.96999931
126.054293815545 1.05306899146616 -0.909999849999998
129.292221050335 0.566160721240458 -9.29999924
44.7614649585386 8.83735553876162 3.52000046
46.1533846168521 0.31290044243937 -4.5699997
49.0647351237815 0.634457883211492 2.86000061
129.554256896279 0.691958696103172 -9.22999954
45.3931282906794 0.378365770204426 -4.44999886
48.3293531909327 0.672733198410692 2.94000244
126.727123458209 0.906500233336943 -0.91999817
129.911603882534 0.693942903425161 -9.29999924
44.6886561960477 0.294519332523989 -4.47999954
44.3313092097929 0.292535125202005 -4.44999886
124.849612408531 9.2010939485192 -0.329998019999998
127.971156758265 9.69530253064708 -9
44.0661335391106 0.155446862381301 -4.32999992
43.6176618455295 0.292330139877364 -4.30999947
130.333107966298 0.576722779856291 -9.34000015
128.345249476458 9.75750160707834 -9.03999901
127.500183287919 1.00370837363361 -0.979999540000001
130.743343563939 0.535617250004557 -9.40999985
43.2540352097978 0.267765356639402 -4.30999947
42.9432971854524 0.200110836227723 -4.26000023
131.084433227423 0.712411220676793 -9.38999939
42.5519005362421 0.308958093827388 -4.30999947
40.9657303634008 8.83472580481358 3.81999969
42.3118434634674 0.262192134670593 -4.19999886
128.196282516582 1.05744737675941 -0.869998930000001
131.440489400848 0.59311968244969 -9.29999924
129.468085830116 9.71283763323191 -9.07999992
41.5235729192324 0.343557187043513 -4.15999985
131.809349077811 0.6365016122843 -9.38999939
41.199228987687 0.226978085480549 -4.12999916
129.83251486951 9.62365352955944 -9.11999893
43.2631406895182 0.650409739883327 3.17000198
42.9641595604642 0.741665258214035 3.36000061
132.153334361449 0.707073554684762 -9.42000008
39.4334262213361 0.292325635257216 -4.01000023
130.196141505242 9.64821831279741 -9.14999962
39.1910317274854 0.120520501232 -4
41.2376394982996 0.714998489665702 3.40999985
132.510681347704 0.709057762006744 -9.42000008
39.5192480975205 0.600926839442242 3.54000092
42.4710323012214 8.88236834195305 3.61999893
43.6137542115565 8.90920952517389 3.52999878
41.4850574232251 9.30252924040189 -3.93999863
47.5560837510666 8.97243352822835 3.31999969
42.7887825887949 9.32514038697 -4.12999916
48.1055880353568 8.96557826224773 3.25
133.292916447046 0.72262444994761 -9.43999863
43.4142008658867 9.35799082884091 -4.19999886
43.9168519836839 9.29929355972022 -4.21999931
133.65863629927 0.754716091824236 -9.3599987
44.360334840618 9.26110545185728 -4.29999924
49.6698140294568 8.8751993218997 3.15000153
131.814302718974 9.51851306459499 -9.13999939
130.891717730309 0.9525118971196 -1.04999924
45.0190003770028 9.29687331571697 -4.27999878
134.394018232119 0.716440776625036 -9.40999985
45.5737377025238 9.308835196333 -4.38999939
50.9724925867804 8.89404703914848 3.06999969
132.338130206278 9.65259669809065 -9.1099987
46.2261235894318 9.32202248427672 -4.40999985
46.9481438196644 9.352334904156 -4.40999985
134.721257783819 0.726797849916225 -9.54999924
52.3199310941048 8.95720990089867 3.01000214
132.619563199731 9.61487519756111 -9.09000015
47.5133472276469 9.40193107796532 -4.52999878
52.7217938257766 8.8859969364923 2.90000153
132.896007356538 9.67584886666467 -9.18000031
47.9858909108895 9.35160667481384 -4.55999947
39.0841381065556 0.669222381859828 3.56999969
131.981551029258 1.02244281751415 -0.989997860000003
133.215118246852 9.77361082163099 -9.18999863
132.295428878342 1.10138762588382 -0.97000122
135.564510155932 0.609869919008248 -9.44999886
130.463235977744 9.20903528242728 -0.47000122
133.583733719231 9.69948043523583 -9.13999939
53.4979934802253 8.99449536474696 2.85000229
48.5333019786874 9.33722455019456 -4.61999893
135.921054738525 0.725603013240666 -9.46999931
39.7969830671566 0.783176254094902 3.52000046
54.1234117573171 9.02734580661787 2.81000137
133.999202358103 9.67719205198075 -9.17000008
49.0600250861461 9.36508615541845 -4.71999931
49.5658160286817 9.31767917425575 -4.70999908
136.326057294935 0.665680336792279 -9.39999962
55.2462481109753 8.98268183277145 2.81000137
50.1996071717427 9.3806370506813 -4.8199997
134.390843211897 9.68585711061085 -9.17000008
41.3166933158396 0.765994485475226 3.45999908
50.8415269761892 9.35619004543173 -4.78999901
133.486852967079 1.07008535465363 -1.04999924
56.3295575558635 8.91251986102027 2.65999985
137.095977299907 0.75159818913096 -9.51999855
51.6394611992233 9.42620817316254 -4.76000023
51.334758619771 9.26362191243707 -4.84000015
131.894717139255 9.22449897035388 -0.41999817
135.056835006005 9.74796897970585 -9.17000008
42.2596874658324 0.6578188205336 3.33000183
57.3290685511485 9.00756937932244 2.70999908
134.233747590635 1.07320776196706 -1.16999817
137.471674825425 0.586299491741351 -9.54999924
52.0858396763121 9.28179803702782 -4.8599987
132.258343774987 9.24906375359184 -0.47000122
135.417321816998 9.76124347498583 -9.26000023
53.0604762782732 9.40403756789584 -4.93000031
52.7277594807585 9.25735103177824 -5
137.749409795061 0.768548906394011 -9.51000023
58.8102984993076 8.96865304211733 2.63000107
135.773377990423 9.64195193675872 -9.21999931
53.5827687481635 9.29933313961265 -5.04999924
44.6773179200125 0.836919761840849 3.22000122
134.892168922436 0.991463309596988 -1.02999878
44.3673822993295 0.655516354518737 3.22999954
59.4365191800618 8.88775459707781 2.61000061
136.128631760185 9.63640928544204 -9.23999977
54.4545237475068 9.40153011655634 -5.09999847
54.1519143845469 9.24647071446953 -5.09999847
135.25788877466 1.02355495147361 -1.13999939
45.0530154455305 0.67162106445124 3.17000198
138.796332155917 0.684179224696053 -9.53999901
39.1881361073307 0.226742529503775 -3.97999954
55.1453899349386 9.43645197308549 -5.13999939
135.875980794029 1.03006138810921 -1.09999847
137.145446686487 9.56041246971329 -9.3199997
54.8375475307479 9.26257542440204 -5.12999916
136.22076848133 0.986884443599245 -1.13999939
137.484198928895 9.61216726551711 -9.3199997
39.6960202663587 0.186862406979736 -4.01000023
139.777004202772 0.711487015250293 -9.51000023
55.8009156465851 9.4609295489872 -5.22999954
140.113663228687 0.755714952415446 -9.45999908
55.4962130671328 9.29834328826173 -5.23999977
40.5127934378235 0.324622262458479 -4.02999878
134.949836760314 9.24658687290447 -0.479999540000001
138.109861410571 9.76253002361779 -9.21999931
56.2504339484123 9.32780970081047 -5.18999863
137.270028263263 1.02755393676971 -1.07999802
41.0269572463284 0.307322715850415 -4.09000015
56.9339738781211 9.33638755210431 -5.26999855
41.7261962997294 0.372352006934205 -4.15999985
41.3851066362455 0.195558036261967 -4.19999886
137.630515074256 1.04082843204968 -1.11000061
57.7662019686944 9.41308653114323 -5.3199997
57.4635926057344 9.25802712905643 -5.3199997
138.878246398129 9.6096598141776 -9.23999977
42.231987242265 0.324945025771504 -4.19999886
63.7613143037343 9.04328511111816 2.27999878
58.5973834510216 9.48602208086283 -5.43000031
58.2615268287686 9.32804525678724 -5.43000031
139.222231681767 9.68023175657807 -9.27999878
42.9998140307445 0.40333601947152 -4.30999947
42.6919716265538 0.229459470788067 -4.30999947
138.329754127657 1.10585772313347 -1.07999802
59.2309303894989 9.43146764105862 -5.38999939
140.001326956371 9.68250815656095 -9.3199997
58.9314608512774 9.2876985269298 -5.43000031
49.5937956523162 0.787358663303807 2.83000183
139.100476536291 1.07802668856171 -1.0699997
137.126119328889 9.25764610950583 -0.5
43.339124472231 0.22382961213514 -4.34000015
139.44969486116 1.16741577755882 -1.20999908
142.685528879458 0.672980648694463 -9.53999901
59.8686637609607 9.39196691853172 -5.43000031
140.583031891708 9.67480688324978 -9.26000023
50.2804754067634 0.807226802555639 2.81000137
44.0768438261558 0.310593471804361 -4.43000031
142.999406728541 0.751925457064133 -9.62999916
60.4857091720833 9.394709925848 -5.5699997
140.881210617099 9.69730025182951 -9.30999947
44.8331579239277 0.347586742991749 -4.34000015
44.4818463825661 0.250670795355981 -4.53999901
61.2451630945936 9.44299348499338 -5.59000015
60.9674281249575 9.26074407034072 -5.55999947
143.592380150003 0.668109590035834 -9.5699997
51.4687596707617 0.764634243367454 2.70999908
141.563703938562 9.70211467380403 -9.29999924
45.4669490669886 0.4105446194173 -4.53999901
45.1591066627979 0.236668070733846 -4.52999878
143.889756471732 0.804351845525987 -9.47999954
62.2093336140932 9.52759872266811 -5.59999847
61.8745236000862 9.37338532791185 -5.62999916
141.990441063558 9.6037116968318 -9.28999901
52.1543928169627 0.78073895329996 2.6800003
45.9217004100466 0.296241917837213 -4.55999947
139.228825325739 9.35403881312409 -0.61000061
141.606894276721 0.993220970182493 -1.18999863
68.2405888285809 9.05449269636005 2.09000015
142.834181844839 9.72180839838335 -9.34000015
62.7077982989058 9.4538477362701 -5.72999954
62.4300633292697 9.27159832161744 -5.63999939
140.054529562252 9.29064490001727 -0.540000919999997
145.598484193712 0.767040315645724 -9.55999947
52.8109651368553 0.808979958520998 2.56000137
46.6531401144946 0.360425201590458 -4.63999939
140.357941328874 9.33195541519365 -0.439998629999998
142.712426699363 1.11960333036699 -1.09999847
146.005579966614 0.714644497835992 -9.65999985
46.3400646690731 0.167731506310356 -4.5699997
63.3766857131684 9.40973757709333 -5.70999908
63.0803559996853 9.27725875092251 -5.75
143.065587252633 1.10653382041166 -1.20999908
146.31502717813 0.661023272698579 -9.57999992
146.636231284937 0.766312086303558 -9.67000008
53.3280245655149 0.685458383641161 2.56999969
47.0309308565049 0.202653362839508 -4.62999916
144.627998829252 9.64056112399882 -9.45999908
69.7000842081546 9.05405665967878 1.9300003
64.1662470702333 9.44964827026951 -5.76999855
54.0220305776851 0.731670528128302 2.47999954
144.862020457133 9.78225882346939 -9.29999924
47.8694385965552 0.301932917794409 -4.69999886
64.6948191896006 9.3675244179023 -5.80999947
144.06590065158 1.0878344518034 -1.22999954
147.292559400246 0.677040775294835 -9.62999916
145.220414051634 9.78800646011072 -9.36999893
48.6404052097731 0.391614199452413 -4.71999931
48.3097816287508 0.252454521973473 -4.8199997
142.418782995878 9.27781094603871 -0.569999699999997
65.3752192945709 9.36481198123815 -5.8599987
147.997031494877 0.760887212975271 -9.67000008
55.3278489597472 0.761808533335073 2.4300003
49.1181819342464 0.36010694289758 -4.8199997
145.115160433513 1.12850394497386 -1.25
148.339725965686 0.710183409826649 -9.61999893
48.8082463135634 0.178703535575464 -4.77999878
148.707539034402 0.749801910341923 -9.63999939
71.7360514818347 9.0271022030897 1.86999893
66.2459276856681 9.46324552886251 -5.84000015
146.62492760333 9.8231333019645 -9.38999939
65.9194905376303 9.33913956866089 -5.95999908
49.8527614634328 0.435580514608811 -4.82999992
145.836936459162 1.04130404862337 -1.22999954
49.5284175318874 0.319001413045846 -5
72.4934121878527 9.06785890359642 1.81000137
147.658244056986 9.68983903911526 -9.40999985
66.9972529467929 9.59893396968301 -6.11999893
66.6894105426021 9.42505742099956 -6.05999947
56.5598465655 0.759767689328968 2.36000061
147.968982081332 9.75749355952694 -9.39999962
50.4355130070162 0.431642670616974 -4.88999939
50.1276706028254 0.25776612193352 -4.86999893
150.413126931644 0.701200092503663 -9.63999939
73.2746006789484 9.07766216221796 1.81000137
67.6784554554256 9.48247264610844 -5.92000008
67.3562047403725 9.37342040318413 -6.03999901
148.715876704888 9.76061596684036 -9.40999985
50.902823649028 0.362501120868843 -4.90999985
73.8406064905933 9.01350944911685 1.81000137
147.919756899335 1.06619159517437 -1.22000122
151.178616299047 0.654551911335255 -9.68000031
149.084492177267 9.68648558044521 -9.45999908
68.333981167072 9.50695022201014 -6.03999901
68.0366048453428 9.37070796651999 -6.05999947
151.473899404284 0.783267308186759 -9.71999931
51.588456795229 0.378605830801347 -4.93000031
149.294441815487 9.74162440557121 -9.29999924
74.6686481481821 9.07515471087846 1.69000244
68.9622950643185 9.43357863560928 -6.05999947
151.759763035306 0.878111841164292 -9.69999886
68.6379511327731 9.31699953404632 -6.13999939
58.5492048772709 0.798483545829584 2.19000244
148.787325465694 1.15333485484073 -1.22999954
152.047231473652 0.745458600320952 -9.68999863
52.1327280382885 0.352933418224079 -5.01999855
149.89079926627 9.78661114273066 -9.34000015
51.8353517165593 0.216691162733922 -5.1099987
75.6566464527594 9.128806506668 1.65000153
150.297895039173 9.73421532492094 -9.34000015
69.8256771976926 9.50566817799833 -6.17000008
69.5262076594711 9.36189906386952 -6.15999985
149.509345695926 1.18364727472001 -1.34000015
152.72553836213 0.735219305018149 -9.6099987
52.7340743257188 0.299224985750414 -5.09999847
70.5152525722946 9.41931428897839 -6.19999886
150.792417495585 9.76292293747538 -9.43999863
59.7830514949323 0.686457244232375 2.06000137
53.3822737796422 0.297358556416815 -5.18999863
153.220060818542 0.763926917572584 -9.68999863
77.1907650123048 9.04680043228918 1.56999969
71.4815163082864 9.51144638529178 -6.3199997
153.681336015661 0.789717108138242 -9.68000031
71.1872798112957 9.38649441775961 -6.32999992
60.8283690484641 0.829585336355286 2.02999878
151.661835073852 9.74008073955064 -9.40999985
54.1988027465233 0.317606095665794 -5.20999908
78.4198669979029 9.15098161655485 1.63000107
150.878274567252 1.0908175197166 -1.27999878
154.176660875735 0.704675833782248 -9.79999924
78.0902900251267 9.01558536839524 1.59000015
152.058464764293 9.65005062854762 -9.37999916
72.2833927597214 9.47900591407015 -6.34000015
71.9559090034376 9.35113652454919 -6.40999985
154.529019025343 0.805355210737347 -9.76000023
61.6043244983291 0.820571448380174 2
55.0975253556828 0.400139918682288 -5.25
152.427324441255 9.69343255838223 -9.40999985
54.7896829514921 0.226263369998834 -5.26999855
79.0295861513024 9.12738061863582 1.52999878
151.589026311361 1.19724453331301 -1.27000046
154.927741932276 0.722851958372993 -9.82999992
72.958559823461 9.45747633080936 -6.3599987
152.705059410891 9.87568197303489 -9.26999855
72.6580436769933 9.30994378736121 -6.36999893
151.946373297616 1.19922874063499 -1.23999786
155.236386740129 0.782979620146009 -9.68999863
55.6334237327731 0.344360071550382 -5.28999901
73.4829455098436 9.36029876116482 -6.38999939
56.1965339242633 0.386429386721049 -5.48999977
80.4422283643831 9.07510257881449 1.5
155.971768672978 0.744704304946809 -9.70999908
74.3141269921708 9.43323431088442 -6.44999886
63.5800769029 0.810362723729505 1.94000244
150.641950112723 9.33850143172168 -0.689998629999998
56.7625397359083 0.322276673619938 -5.44999886
75.2097097765919 9.50447784594292 -6.5
154.135005554989 9.65235759918263 -9.43999863
74.882226020308 9.37660845642197 -6.54999924
57.3638860233386 0.268568241146272 -5.43000031
75.9804321852261 9.47664681137116 -6.51000023
75.6613212949115 9.37888485640485 -6.61999893
154.347292614285 9.83253559917706 -9.43000031
153.572907377317 1.09963092698722 -1.25
58.0547522107704 0.303490097675422 -5.53999901
151.508227866251 9.30436894583896 -0.689998629999998
154.640238298446 9.83621182116013 -9.39999962
157.075207879127 0.863559806492654 -9.63999939
82.9187828748426 9.11618204263423 1.33000183
76.8542804010618 9.5863706469535 -6.70999908
154.967477850146 9.84656889445132 -9.36999893
154.253307482288 1.09691849032307 -1.3199997
155.447103586528 9.70507618030538 -9.48999977
65.701377643597 0.856984838865928 1.70999908
58.9919551204538 0.407758489277346 -5.53999901
83.5719711654129 9.01562044366752 1.31999969
77.604070644773 9.48327102599515 -6.61999893
77.2765868884891 9.3554016364742 -6.61999893
156.146098435345 9.65259315515941 -9.39999962
66.5126735692474 0.858415231518259 1.75
59.5631939733294 0.362422922772885 -5.63999939
84.6099624612218 9.13240453055512 1.1800003
78.6742625916287 9.59920910555222 -6.69999886
153.549428181162 9.29623163584652 -0.590000150000002
156.291612177044 1.19500320860242 -1.3199997
159.541052102541 0.749492660889339 -9.63999939
78.3800260946379 9.47425713802004 -6.70999908
60.4784181098437 0.387659298668889 -5.57999992
157.750095542799 9.70522452894591 -9.44999886
85.4678673487814 9.06816461011776 1.17000198
79.399178442016 9.52329949715972 -6.76999855
160.271200994159 0.692400199093492 -9.73999977
158.102453692407 9.805903905901 -9.46999931
79.0716946857322 9.39543010763876 -6.77999878
61.2648396421701 0.416279703887073 -5.69999886
157.33330149667 1.09181638030781 -1.25999832
60.9082950595778 0.300546609654655 -5.84000015
158.50825865248 9.63223234254219 -9.39999962
161.005780523345 0.76787377080472 -9.76000023
80.3413701883464 9.52887271912853 -6.78999901
80.0419006501249 9.38510360499971 -6.76000023
155.694556706937 9.31190030909776 -0.659999849999998
158.894108265964 9.85334145771584 -9.46999931
68.7947333605953 0.783294993772189 1.56999969
158.177844681613 1.09616419494893 -1.39999771
161.470997948865 0.691205362417933 -9.84999847
159.303053050775 9.69096018231501 -9.43999863
62.112522651852 0.431917806486177 -5.77999878
87.6786879894799 9.203417014257 1.13999939
159.668772902999 9.72305182419164 -9.51000023
87.4114191023053 9.05880189279764 1.17000198
81.4613109218499 9.59043077355388 -6.73999977
162.111312945987 0.894256130989221 -9.75
81.1453398562737 9.50395910654555 -6.86999893
69.7816850569265 0.833183360242406 1.61000061
159.944170451559 9.78026206397587 -9.43999863
62.8198903666385 0.409542215894842 -5.84000015
81.8205069200133 9.48242952328476 -6.98999977
162.395885764178 0.867824918417662 -9.68000031
63.5013370798549 0.410593208550027 -5.87999916
63.1738533235711 0.282723819029074 -5.96999931
82.8011789668675 9.509737313839 -6.90999985
162.825762713912 0.780712229403428 -9.80999947
82.5038026451383 9.37349505834884 -6.89999962
71.1393454421286 0.816468198956128 1.45999908
157.462696894364 9.37159193418952 -0.649997710000001
64.2275437430721 0.455959345706621 -6.01000023
90.0510700844918 9.10317817860332 1.02000046
83.5771344167325 9.50072342586389 -7
160.642084097703 1.20959482316648 -1.3199997
163.899896889169 0.794191710008044 -9.76000023
83.2745250537725 9.34566402377708 -6.93999863
72.1315301796905 0.885173712022994 1.47999954
158.489977903128 9.33322941165406 -0.630001069999999
160.935029781863 1.21327104514956 -1.27999878
164.225043224377 0.79702192466057 -9.79999924
64.9765315831209 0.466608611658704 -6.04999924
64.6707823954225 0.300258921613907 -6.02999878
158.768515276426 9.40172993939629 -0.63999939
161.226928857778 1.2131838378133 -1.27000046
164.495207731706 0.835415017848164 -9.77999878
91.3893333221846 9.2499824927093 0.959999080000003
84.5224659878013 9.51758693579069 -7.11999893
162.297155399062 9.84354270371444 -9.43000031
73.0135070569117 0.907492665930214 1.40000153
65.7388811257859 0.408670142532306 -6.07999992
161.607057020865 1.18045117393078 -1.38000107
164.875335894792 0.80268235396563 -9.80999947
92.1006432653719 9.12514830316551 0.930000300000003
85.5997399877964 9.54235670435328 -7.12999916
162.704251171964 9.79114688590472 -9.48999977
85.3023636660672 9.40611444886313 -7.11999893
73.8776915939482 0.86583332140883 1.40999985
165.194446785107 0.900444308931953 -9.73999977
66.6541052623001 0.433906518428309 -6.11999893
163.094845417512 9.7960485152155 -9.43000031
93.1747774406285 9.13862778377013 0.86000061
86.6791072042838 9.57465333155455 -7.15999985
165.629556776072 0.832148766514366 -9.73999977
163.516593705861 9.79634070787638 -9.51000023
86.3869639237853 9.45722822266104 -7.17000008
74.6868943031063 0.859736855422502 1.29999924
165.995276628296 0.864240408390985 -9.76000023
67.5318957065367 0.441171755058208 -6.17000008
67.2261465188382 0.274822065013414 -6.11999893
164.125266251014 9.76897628063803 -9.46999931
94.0161808008335 9.13168531045326 0.790000919999997
87.370775795378 9.49582630117327 -7.17000008
166.665210650805 0.823893678533545 -9.76999855
75.3641545833381 0.845734130800367 1.15999985
164.467960721823 9.7182724774894 -9.43000031
68.356797539387 0.491526728861825 -6.22999954
68.0261739583647 0.352367051382886 -6.28999901
161.528595996831 9.41261476132514 -0.619998930000001
88.2611255385683 9.54825268963512 -7.21999931
167.279360441773 0.932858714121601 -9.73999977
76.21183759302 0.861372233399472 1.22999954
68.9581438268173 0.437818296388159 -6.23999977
165.065608985436 9.88453496019794 -9.40999985
89.1847225410517 9.60359650008576 -7.26999855
165.444690540276 9.84803886699608 -9.42000008
164.747265904356 1.15860333197711 -1.29000092
88.8925792605533 9.48617139119225 -7.26999855
165.806223959516 9.86507679159538 -9.43000031
76.9951193006081 0.87870235065967 1.22000122
69.5377555456622 0.422590164438337 -6.28999901
166.143929593677 9.91306815807987 -9.45999908
96.6152582660039 9.14680016903484 0.810001370000002
168.695142479592 0.891870962258246 -9.73999977
89.8140830465444 9.53398834300423 -7.26999855
89.497065372722 9.44375324667657 -7.38999939
166.565433677442 9.795848034511 -9.47999954
77.6705305689313 0.97468508362864 0.930000300000003
169.066095373046 0.942779750731526 -9.76999855
97.6147692612888 9.24184968733702 0.709999080000003
166.943468624036 9.75558851198981 -9.51999855
90.8947410758616 9.68756071575458 -7.38999939
90.6036444036093 9.5738990361804 -7.39999962
166.175851445713 1.28028904817548 -1.29000092
169.460631846995 0.845222781089846 -9.71999931
71.0160898736666 0.489895855505002 -6.34999847
98.4208321457084 9.2244629333927 0.670001980000002
167.287453907675 9.82616045439028 -9.47999954
91.4471409803066 9.57448342150219 -7.37999916
91.1508112668235 9.44200459533137 -7.3599987
169.804617130634 0.915794723490309 -9.76000023
79.0093520057028 0.890228194594433 1.02000046
71.3200598393677 0.299945167541176 -6.37999916
167.66234902953 9.7746106439111 -9.45999908
99.2653753306519 9.22881074803382 0.63999939
92.4196843657754 9.68919609373155 -7.51999855
166.960982165209 1.18763370784457 -1.40999985
167.969947229137 9.8309748763648 -9.42000008
92.1586951280777 9.56716154818817 -7.51000023
79.6544116348877 0.877071477302846 0.97000122
165.087413343933 9.37976882407438 -0.689998629999998
165.398151368278 9.44742334448605 -0.689998629999998
72.4528040764087 0.524176690028249 -6.43000031
72.1284601448633 0.407597588465284 -6.48999977
167.927245901201 1.27976580415796 -1.41999817
171.149718216882 0.853918410372082 -9.68000031
93.2069083017643 9.60406761203931 -7.45999908
92.8857041949573 9.49877879843433 -7.51000023
165.745032272071 9.41177325861475 -0.659999849999998
80.5374351203549 0.903153860529391 0.959999080000003
73.0240429292844 0.478841123523787 -6.51999855
168.591946882479 1.22060192770388 -1.25
171.887193366223 0.82316995381153 -9.72999954
100.995837621217 9.15301891762971 0.569999690000003
94.2312936903731 9.67192711777563 -7.57999992
169.662173423763 9.85096079360502 -9.46999931
93.9017167175969 9.53653086961602 -7.54999924
81.3081575289892 0.875322825957633 0.88999939
170.019520410017 9.852945000927 -9.48999977
73.8083712451186 0.499934670103312 -6.65999985
73.5337761002209 0.328975543408643 -6.53999901
102.221799782077 9.24590981393738 0.52999878
170.314559310671 9.86414808154874 -9.42000008
101.925470068594 9.11343098776656 0.61000061
169.641206664412 1.26127142087434 -1.29000092
172.876238279047 0.880585178920414 -9.65999985
95.0986180521481 9.64155806121223 -7.59000015
94.8033349469112 9.51284266436073 -7.6099987
170.672952905172 9.86989571819005 -9.48999977
82.2888295758434 0.902630616511872 0.940002440000001
74.363910974302 0.398147663808907 -6.69999886
171.006472106349 9.90283336739722 -9.51000023
95.8942148541062 9.58653701407462 -7.62999916
173.520495504569 0.981177348539263 -9.63999939
95.5771971802839 9.49630191774696 -7.70999908
82.997243898876 0.884018455239866 0.86000061
168.179966657269 9.41982786589107 -0.709999080000003
96.8500125076366 9.64103481719471 -7.67000008
96.5662420931073 9.55371714285584 -7.76000023
173.911892153779 0.8723300909396 -9.68999863
83.8543463827733 0.933527421712935 0.799999239999998
76.186230585945 0.536025297276038 -6.76000023
168.472912341429 9.42350408787414 -0.559997559999999
75.9189616987704 0.391410175816675 -6.72999954
172.085595118252 9.81761767836872 -9.42000008
104.791572216355 9.15564865157774 0.409999849999998
97.7932508622131 9.65037146848285 -7.71999931
171.390507903408 1.25322131821816 -1.29999924
174.685754387152 0.855789344325829 -9.75
97.4730933636523 9.5488460841972 -7.79999924
172.487702054508 9.86391703019211 -9.45999908
84.5897283156221 0.895252106513731 0.740001679999999
171.795510459818 1.19329864176978 -1.29000092
175.090756943562 0.795866667877442 -9.71999931
76.8498849589768 0.47309799150262 -6.76999855
105.846867443181 9.10138640443443 0.549999239999998
98.8715714704543 9.67890466636478 -7.76000023
98.5773349734636 9.55395269883261 -7.73999977
175.360119047229 0.948008647975464 -9.65999985
77.7766217861987 0.539732089911245 -6.89999962
77.4792454644695 0.403489834421092 -6.89999962
170.082944893776 9.38120372134686 -0.790000919999997
173.189034324401 9.93647317991456 -9.43999863
172.513344257066 1.20855734437173 -1.20999908
175.784762955733 0.842078812364584 -9.64999962
107.065503346318 9.1679332955068 0.409999849999998
173.569162487487 9.90374051603203 -9.38999939
172.917544409814 1.2623835548338 -1.3199997
176.15780906568 0.900514459476512 -9.68999863
99.8116700002924 9.67695102969493 -7.88999939
173.974165043898 9.84381783958365 -9.43000031
99.5402146801332 9.51728219095825 -7.78999901
78.4952579871091 0.441241905602774 -6.8599987
176.508073998795 0.993666977792956 -9.63999939
101.041574389553 9.66738332705017 -7.80999947
174.318952731199 9.80064089507368 -9.38999939
100.752570933793 9.56124850611465 -7.8199997
87.6066118407402 1.01311775670866 0.569999690000003
176.893190998528 0.862239144277312 -9.65999985
79.5091772932565 0.471467118145797 -6.94999886
109.398602737143 9.15970877817812 0.340000150000002
174.043520588211 1.22900986894536 -1.38000107
177.303426596169 0.821133614425578 -9.76000023
102.078274872532 9.66289166838868 -7.89999962
101.756024157479 9.55383942546437 -7.95999908
171.842712215234 9.41078791188397 -0.599998470000003
174.388308275512 1.18583292443539 -1.25
172.243772543243 9.45332383438804 -0.75
88.4208033865453 0.908326121089215 0.58000183
110.857295713055 9.27302162840728 0.36000061
174.748795086505 1.19910741971536 -1.27000046
110.571432082033 9.17817709542975 0.310001370000002
103.040107970955 9.62245773119498 -7.93000031
175.720570662739 9.94198976519925 -9.3599987
178.339324675486 0.93039084267452 -9.70999908
102.745871473965 9.49750576366281 -7.92000008
176.122433394411 9.87077680079287 -9.39999962
89.5792244205726 0.991618744099999 0.58000183
81.3322993085618 0.495595864702492 -7.0699997
178.730721324696 0.821543585074857 -9.63999939
111.759960550615 9.25309685247133 0.209999080000003
173.323942163393 9.37187157467887 -0.619998930000001
104.15167583849 9.6539083510657 -7.93000031
103.865812207468 9.55906381808817 -7.96999931
90.2282262781584 0.876003427855967 0.560001370000002
81.8493587372214 0.372074289822657 -7.09999847
176.189695722232 1.24844197151592 -1.25
179.484942205976 0.851009997623593 -9.70999908
113.062639107939 9.27194456972011 0.319999690000003
179.858790719585 0.795696757825085 -9.67000008
105.271616571993 9.71546640549105 -8.03999901
104.950412465186 9.61017759188608 -8.04999924
174.757760745981 9.51237443747388 -0.689998629999998
177.983791505656 9.79912779970524 -9.42000008
91.2599379244903 0.970206938827595 0.420001980000002
83.0504465047572 0.49215519869619 -7.1099987
180.516653852308 0.945213508595217 -9.57999992
82.7313356144425 0.39439324372987 -7.18000031
175.104641649774 9.47672435160258 -0.809997559999999
114.281275011075 9.33849146079248 0.270000459999999
113.997504596546 9.25117378645361 0.240001679999999
177.571428097095 1.31828568457423 -1.29999924
180.826101063823 0.891592283457805 -9.59000015
106.313550096203 9.72979189342621 -8.1099987
106.019313599212 9.60483992589404 -8.03999901
178.433798216651 9.90103258398803 -9.34999847
92.2063161038053 0.99083387807372 0.400001529999997
178.671762072933 9.94027168450617 -9.36999893
181.292609302173 0.936199620620109 -9.59000015
84.1133121938899 0.581749273017938 -7.15999985
83.7921080870829 0.476460459412963 -7.23999977
107.201562418317 9.65717910701965 -8.09999847
178.292401719082 1.34483467513418 -1.20999908
181.557540768271 0.955775567211043 -9.59999847
106.915698787296 9.56233457404211 -8.15999985
93.0393465980411 0.953783970202211 0.340000150000002
179.239861101071 9.88364583004372 -9.34000015
84.7748733504295 0.511295108605865 -7.25
108.242449334281 9.66774116563548 -8.12999916
181.845253411201 0.940634642597474 -9.53999901
107.931711309935 9.6000866452238 -8.21999931
94.1812661047138 1.09437404033349 0.22000122
176.414402260237 9.4044037578569 -0.52999878
93.9003913103392 0.900834337722839 0.420001980000002
178.951869659129 1.26685365208344 -1.15999985
182.247116142873 0.86942167819111 -9.62999916
85.6413953085421 0.5946749389529 -7.44999886
85.3408791620744 0.447142395504753 -7.37999916
117.15735483213 9.18331878533744 0.200000760000002
109.076526436763 9.63445468708329 -8.23999977
95.0776512927973 1.05186868848156 0.25
180.171307965928 1.21965165624538 -1.13000107
183.45214613881 0.887043988112191 -9.62999916
86.5814938383802 0.59272130228305 -7.37999916
86.2788844754202 0.437661900196244 -7.27999878
110.603807147752 9.76112923992869 -8.23999977
110.311663867254 9.64370413103518 -8.20999908
180.555866766583 1.31948502586993 -1.22000122
183.847973425588 0.910762764019609 -9.59999847
109.992552976939 9.54594217606886 -8.25
95.9002157045716 0.977184487416751 0.25
87.5537930192652 0.589921658282653 -7.39999962
87.2294490877198 0.473342556719687 -7.42000008
180.949600836869 1.33567694313869 -1.23999786
184.189865492735 0.973807847781416 -9.63999939
119.886525714318 9.31632536014594 0.0699996900000031
119.625536476621 9.19429081460255 0.159999849999998
181.225800789091 1.27913829601249 -1.18999863
184.498266096004 0.916423193324676 -9.5699997
111.52506672916 9.69143387551091 -8.29999924
111.241296314631 9.60411620117203 -8.34999847
182.148385777757 9.84513946348789 -9.30999947
97.0971170391227 1.08221167901296 0.119998930000001
96.7945076761628 0.927152276926159 0.209999080000003
184.741462993517 0.974479440439453 -9.54999924
88.2703360036833 0.483904615335519 -7.42000008
182.43505181244 9.82623510955499 -9.29999924
112.620935473002 9.66643305559168 -8.30999947
112.334025233734 9.56782509329481 -8.30999947
182.697087658384 9.95203308441771 -9.36999893
98.0890575721009 1.03340487585007 0.229999540000001
97.7783195477555 0.965750355438389 0.0800018300000005
89.3685421686014 0.583942970284711 -7.51999855
89.0743056716106 0.458991002752541 -7.46999931
113.727270299305 9.67906652886575 -8.34000015
180.603870925661 9.42322540907369 -0.540000919999997
183.181911841569 1.31493673052433 -1.20000076
186.430549363404 0.98317506972169 -9.59000015
113.411299233729 9.59259486185742 -8.36999893
183.60575334641 1.32275578182388 -1.20000076
186.837645136306 0.930779251911965 -9.51999855
98.9689412328297 1.04819697111863 0.159999849999998
90.174605053021 0.566556216340399 -7.52999878
184.63749958717 9.93138007913959 -9.30999947
89.885601597261 0.460421395404876 -7.5699997
114.586221795111 9.61859003774771 -8.34999847
184.971018788347 9.96431772834676 -9.27999878
114.27443716252 9.5471720880167 -8.43999863
187.633241938265 0.875758204774351 -9.5
99.8435918523278 1.04417191979054 0.0699996900000031
91.1314493147975 0.62481744877982 -7.59999847
188.053943618367 0.872286968115916 -9.68999863
90.839306034299 0.50739233988631 -7.6099987
185.628637716486 9.99632216288713 -9.28999901
188.270172906064 0.950006369157898 -9.46999931
124.38753480775 9.28905264486397 -0.0299987799999997
186.00667266308 9.95606264036594 -9.3599987
115.880771691049 9.72484263667162 -8.43000031
186.328679173549 9.94760256706049 -9.23999977
115.564800625473 9.63837096966329 -8.43000031
100.859604374967 1.08192399097222 0.0600013700000019
91.9021717234317 0.596986414208062 -7.62999916
186.106135641947 1.33288180375844 -1.18999863
189.332794390613 0.92208812724988 -9.48999977
91.615261484164 0.498378451911198 -7.65999985
116.870619007535 9.66850897487006 -8.44999886
187.023487589382 9.88006582463719 -9.20999908
116.553601333713 9.5782738785424 -8.47999954
186.440457246787 1.25207056605517 -1.09999847
101.797609688313 1.07244349566371 0.0200004599999986
101.505466407815 0.9550183867702 0
184.224193954702 9.49490948543362 -0.52999878
92.9815389399191 0.62928304140932 -7.62999916
92.6344138315421 0.547420811050871 -7.73999977
186.791768788148 1.34898651369095 -1.16999817
190.035173268752 0.998407706291659 -9.45999908
126.983472448182 9.29287721548758 -0.0900001500000016
118.386387027817 9.75378580520283 -8.47999954
187.70831833192 10.0099194214801 -9.22999954
118.102616613288 9.66646813086396 -8.51000023
190.340678251867 1.04724508010669 -9.45999908
103.056819108466 1.16825181396017 -0.119998930000001
102.789550221291 1.02363669250081 -0.00999832000000112
187.436828417333 1.33582979639936 -1.05999756
190.740447767047 0.968505257061666 -9.51999855
102.495313724301 0.898684724968644 0.0499992399999982
128.41600021794 9.3121043327335 -0.13999939
119.510269989722 9.71288526067574 -8.54999924
119.221266533962 9.60675043974022 -8.52999878
191.3763321266 1.03898999212587 -9.36999893
103.962379566181 1.04210500975245 -0.0599975599999993
94.8939366506422 0.624529760739073 -7.8199997
120.980231451757 9.75008351718777 -8.5
188.486088199266 1.37649928956983 -1.05999756
191.764833155655 1.03636476279798 -9.47999954
120.669493427411 9.68242899677609 -8.59000015
105.241230338427 1.09190616888641 -0.0499992399999982
186.32874896346 9.48131673146077 -0.5
104.921072839866 0.990380784600764 -0.0999984700000027
188.893183972169 1.3241034717601 -1.0699997
192.171928928558 0.983968944988264 -9.48999977
96.0719990367627 0.661815224587355 -7.80999947
95.7798557562642 0.544390115693848 -7.8599987
122.420085479238 9.795654639669 -8.5699997
122.141548105939 9.72715411192678 -8.62999916
189.2568106079 1.34866825499808 -1.11999893
192.516716615859 0.94079200047829 -9.40999985
121.852544650179 9.62101929099126 -8.59000015
106.352798205961 1.12335678875713 -0.22000122
190.168929514104 9.87703512928017 -9.15999985
97.0285990939555 0.602564140797015 -7.82999992
96.7395956381955 0.496429319861495 -7.82999992
132.701024228259 9.32462453263933 -0.149997710000001
190.416557049185 10.067657409902 -9.30999947
123.750778254623 9.79860263230992 -8.52999878
123.44213344677 9.7384749705369 -8.61999893
193.352084531171 1.0287812674752 -9.39999962
123.16150285698 9.66244758415601 -8.68999863
107.274057787369 1.05366142433934 -0.200000760000002
191.08101382588 9.89098121721818 -9.18000031
98.1433067862282 0.64530504862572 -7.87999916
97.8241958959136 0.547543093659407 -7.88999939
190.448234696637 1.31736598376787 -0.959999080000003
193.696872218472 0.985604322965231 -9.36999893
124.568109625167 9.70510128464847 -8.68999863
124.282245994145 9.61025675167093 -8.68000031
191.45301332758 9.94565343501078 -9.17000008
108.239030710531 1.02451777510364 -0.239997860000003
190.890915149909 1.39292676281536 -1.13000107
194.10107237122 1.03943053342729 -9.3599987
98.9742440639717 0.600728282115552 -7.93000031
191.897786997344 10.0287410726969 -9.19999886
98.6582729983955 0.514256615107226 -8
126.016336518617 9.78077984168434 -8.64999962
189.164743676667 9.53190726124115 -0.509998320000001
192.341025649695 9.87304064860421 -9.12999916
125.702458669533 9.70183503331467 -8.70999908
125.391720645187 9.63418051290299 -8.77999878
191.718956807497 1.45457202457696 -1.00999832
194.986189073179 1.07303977529249 -9.37999916
192.684208529671 10.0573614779151 -9.17000008
109.424419354374 1.08814724418723 -0.22000122
192.107213631969 1.33443447901931 -0.97000122
195.385958588359 0.994299952247467 -9.38999939
99.922715459779 0.628882080000339 -7.96999931
192.968781347863 10.0309302653435 -9.15999985
195.617886999748 1.12847079307938 -9.34000015
193.160938645898 10.0220907920409 -9.11999893
99.6088376106951 0.549937271630669 -8.0699997
136.632887685307 9.35021424250049 -0.27999878
126.801467238113 9.68812450135344 -8.78999901
100.788993213308 0.594749594117613 -8.02999878
100.469882322993 0.496987639151297 -8.0699997
196.304322549611 1.03082661610146 -9.36999893
128.315142041903 9.76587447304754 -8.75
128.00649723405 9.70574681127452 -8.79999924
193.933754271025 10.0017866161078 -9.1099987
127.725866644259 9.62971942489364 -8.86999893
196.620293615187 1.11729828310978 -9.37999916
194.354455951127 9.99831537944941 -9.15999985
111.394938717714 1.05912137293991 -0.27999878
193.765390163639 1.46525186118118 -1.02999878
197.010887860735 1.12219991242055 -9.34999847
111.078967652138 0.972649705931581 -0.329998019999998
101.76757204367 0.61453052603319 -8.0699997
101.448461153355 0.516768571066877 -8.09999847
139.701613213565 9.42122672620237 -0.299999239999998
195.051601788036 10.0558178118945 -9.12999916
129.726981851321 9.82734532013664 -8.86999893
194.545287841905 1.35377937425363 -1.02000046
197.762771320939 1.02662715010086 -9.32999992
129.411010785745 9.74087365312831 -8.88999939
129.093993111923 9.65063855680066 -8.88999939
195.407657961461 9.93652627366743 -9.09999847
112.573001103835 1.0964068367882 -0.349998470000003
198.0693229123 1.07922795323523 -9.26000023
112.308872041399 0.963082003286822 -0.259998320000001
102.97992829733 0.65849684118959 -8.02999878
102.666050448246 0.57955203281992 -8.14999962
102.377046992486 0.4734172118844 -8.18000031
192.862027306755 9.64706047477193 -0.259998320000001
196.103757190123 9.99026527679323 -9.03999901
140.915818479134 9.35520758376766 -0.340000150000002
195.546892053682 1.45635575119446 -0.950000760000002
198.787156709548 1.09448665583718 -9.23999977
196.477849908316 10.0524643532245 -9.04999924
131.080455803539 9.79557644157305 -8.8599987
199.175657738603 1.09186142650929 -9.29999924
130.793545564271 9.69696847927619 -8.8199997
130.482807539926 9.6293139588645 -8.86999893
199.549750456796 1.15406050294055 -9.28999901
197.262980627813 9.95980901289358 -9.1099987
199.894538144097 1.11088355843057 -9.23999977
197.563252569697 9.98982924011197 -9.01999855
113.579349947675 0.982775727866145 -0.259998320000001
200.228057345274 1.14382120763774 -9.18999863
197.904098028597 10.0491108945544 -9.04999924
103.770292058057 0.584658647455332 -8.15999985
142.778467403209 9.40483432822912 -0.319999699999997
132.880796642013 9.85442205933425 -8.76999855
198.265387243253 9.94863650292397 -9.01000023
132.570058617667 9.78676753892258 -8.80999947
131.986016261254 9.66942963736532 -8.93000031
195.447498864726 9.61325075220223 -0.380001069999999
198.618547796523 9.93556699296864 -9.03999901
115.187777692697 1.16797313515972 -0.409999849999998
114.895634412199 1.05054802626621 -0.36000061
198.053309794112 1.37155003281524 -0.869998930000001
201.305087140686 1.05107865997059 -9.18999863
105.022175220487 0.654122960516486 -8.25
144.31492338383 9.44786742871872 -0.409999849999998
195.726838641687 9.56800239303402 -0.27999878
133.976665385855 9.82942123941503 -8.89999962
201.604556678907 1.19484777409939 -9.25
199.224324721521 10.0144245940021 -8.93999863
133.692894971326 9.74210356507616 -8.89999962
198.656993502619 1.44288077520999 -0.790000919999997
201.925272376547 1.06511195524485 -9.1099987
133.412264381535 9.66607617869527 -8.90999985
202.236010400892 1.13276647565652 -9.13999939
116.278413395309 1.12415516864385 -0.369998930000001
106.005742887496 0.575208722798952 -8.18000031
146.112124397566 9.49542275852193 -0.369998930000001
200.241383852407 10.0559400945031 -8.95999908
145.834633632513 9.43068566009904 -0.380001069999999
203.035549431251 0.975286829566472 -9.20999908
135.348978286503 9.86539408859937 -9.02999878
135.086942440559 9.73959611373665 -8.89999962
200.672551614971 10.0901031510379 -9.05999947
134.778297632706 9.67946845196363 -8.93999863
203.43137671803 0.999005605473891 -9.20999908
117.314067270041 1.11590008066303 -0.450000760000002
107.162070705031 0.650974487171077 -8.28999901
201.036178250703 10.1146679342759 -8.88999939
106.845053031208 0.560739390843421 -8.32999992
136.608990110318 9.84745351998539 -8.95999908
136.327312912281 9.76766270428519 -8.97999954
204.182457774571 1.01718173006463 -9.15999985
136.038309456521 9.66152788334966 -8.90999985
118.173018765847 1.055423589545 -0.479999540000001
