ply
format ascii 1.0
comment File exported by Rhinoceros Version 7.0
element vertex 1047
property float x
property float y
property float z
end_header
-6.40256526230931 6.53932812440314 40.5320015
-6.94620791384551 6.49132572935155 39.02199936
-5.94587704173532 6.2904432480266 41.7329979
-6.92841774710273 6.19829816991001 38.96400071
-5.83833748017797 6.0286926650281 41.90400315
7.11002021570176 4.36613281793171 42.80099869
5.71644236601552 3.85327913327703 38.9299965
6.12512819153792 4.14803690843669 40.28300095
6.90758497668106 4.73626588809383 42.97199631
5.46667019952713 4.17971316543007 38.9090004
5.21689803303873 4.50614719758311 38.86700058
6.96623485307496 5.80128020935856 44.87600327
3.95290890418955 4.08197815960877 35.40600205
4.96712586655033 4.83258122973615 38.88299942
6.79871447995592 6.17269985018287 45.1550026
3.96231417937526 4.58578148512249 36.20199967
6.73336556321748 6.61780893479709 45.70399857
4.14864510286571 5.22196849532561 37.73599625
6.33408501288079 6.82685448515115 45.13100052
4.25272423298681 5.81316989685747 38.89500046
4.05028899396611 6.18330296701959 39.06599808
4.28204917118376 6.34567705748984 39.82799912
5.16667741270749 7.00759548093689 42.89500046
0.428858766917914 4.0779853541054 27.58900071
3.7456822985648 6.47974659339178 38.82799912
4.37863069985965 6.95058709124993 41.01800156
3.5905839870118 6.89357870156297 39.18099595
4.02668707699065 7.20333167961305 40.61700058
0.119460704912572 6.4020643440985 30.64100266
-1.02993490598998 6.09399721726095 27.56699753
-0.442415758422338 7.03865063485196 30.4050026
-1.55197204330241 6.78799117825171 27.57600022
-1.06103442441065 7.12773456208264 29.20699692
-6.63689858085135 6.44678376573621 28.72400284
19.4000530130875 4.81900569102471 28.1609993
13.2099622767122 6.95435807422533 28.97500229
13.604318366928 6.68919142429617 27.64699936
3.28513436600423 1.33031406471067 8.60900116
2.72436701530914 0.987997539555345 7.04100037
13.7910929354744 6.93381730813579 27.63299942
8.35710646792003 4.30020716262057 20.45899964
-6.8832103159035 5.92026581335889 39.01600266
-6.87291775060593 5.64094688614558 38.97500229
-10.9626596986935 5.23851645591179 27.58400345
-6.83520792085191 5.37662316182269 38.99899674
7.57655735651739 4.22949014070538 42.76399613
6.53190634331982 3.92528272585441 39.92499924
6.96800943329868 4.2350357039045 41.39200211
6.0180322750365 4.01822636507168 38.92499924
7.05216890040853 4.79753327031771 42.54899979
5.23748316363387 3.94750934315649 37.13799668
6.9394830562024 5.19894331692286 42.95199967
4.40959712476353 3.83309328323223 35.09000016
4.74352875836179 4.0691568174924 36.21999741
4.15982495827514 4.15952731538527 35.12299729
3.8901331287755 4.45725751241967 34.99200058
2.52397254354572 3.9593990306554 31.12299729
4.79166424693015 5.6092706291522 38.89500046
6.31673849119394 6.72832091822917 44.0359993
4.11328659190812 5.61224305102693 37.32400132
4.54938968188697 5.92199602907702 38.84800339
4.03551561360365 6.01493966829428 37.83099747
5.17932129680149 6.85422738510201 41.77499772
4.07233815324581 6.53373819669842 38.77399827
4.24926380155056 6.66612188138783 39.37299729
4.7327038189971 7.01957389744699 41.06200028
3.93223504458322 6.92015304041315 39.06399918
0.290885154523791 4.78613159238032 27.55099869
3.62762834918192 7.21659666678535 38.93300248
0.218837197440815 6.7413640828735 30.56200028
-0.895643547560075 6.43458352669814 27.57899857
-0.0508546320588237 7.03909427990789 30.41599656
-1.13791811260326 6.74730892662296 27.54600144
-0.674397758167955 7.07205710756347 29.09599686
-1.33285575017875 7.10373336455684 27.6609993
1.00479877852579 10.839934567574 1.67699814
-7.0408817687809 6.4039276533334 27.58400345
9.477354598648 10.5228170815955 3.00199891
15.950978890268 4.67792656323908 41.52699662
2.16359966461406 0.645681014400022 5.4090004
7.50260172569391 5.66721067345662 27.61899949
-6.83241295699955 5.11101286683761 38.93300248
10.1592370496119 3.02406215923891 6.3540001
10.1770272163547 2.73103459979737 6.3540001
-5.80466482043291 4.92512558840308 41.70699692
-6.75229065989865 4.83426708094869 39.09399796
7.1696904757243 6.73178134966542 35.01700211
16.0208086220713 4.68049970456347 39.62800217
7.88072040686276 4.3246076406967 42.64799881
6.75381760029584 3.97541461717447 39.58700181
7.10766889690533 4.24018198655328 40.75100327
5.84367976805615 3.81601294857894 37.32400132
6.98748545125399 4.65530066538666 41.19500351
7.23916529148288 4.84637859097557 42.11300278
5.54657067410006 4.09874794272291 37.08700181
6.04993035455785 4.48090379390072 38.86600113
4.62893524041516 3.95305490635561 34.81599808
6.99130079873498 5.69032458087055 42.95000077
3.97047724840436 3.98473116334899 33.40800095
3.12759600664361 3.89773236788118 31.43200303
4.12189330599315 4.61963160288992 34.7859993
5.34045318111514 5.51761356059714 38.95000077
6.91286435284662 6.68036288768317 44.36200333
2.20996057295871 3.75203933151388 29.1609993
6.48616653805348 6.87441323514681 43.70699692
1.53158291793667 3.75501175338861 27.66199875
4.81349158368189 6.1554864220128 38.84499741
6.01213179579264 7.02476454460137 42.92100144
4.08777700119216 6.11475980587845 37.14899827
5.30633687631415 7.01274176358567 41.38799668
4.11900961312961 7.16477892425277 38.94099808
0.52499665053787 5.074456514229 27.55700303
0.422958287674049 7.08452353363509 30.61099625
-0.699020058772052 6.79145160968796 27.63399888
-0.262916968793199 7.10120458773804 29.1040001
-0.948792225260448 7.117885641841 27.6099968
9.8702910246849 2.70574683160938 5.4430008
10.1784468805336 10.2829381998544 4.90499878
0.323359972617842 6.94100435804185 40.57000351
10.3209013079926 10.0224741875181 5.24100113
19.8288803241491 4.94668673812126 42.56100083
20.0156548926955 5.19131262196087 42.57799912
10.2222346475539 2.45300224324626 6.36100007
0.927027800221325 0.2365071793161 1.82299805
0.25122328652368 0.169649869387501 -0.0310020399999971
5.81484283942072 7.25523815115682 33.98800278
7.89731273195453 7.29001992354171 9.40599823
-7.5876743002142 4.73355965325266 27.60499955
8.73078869852958 6.8732153934958 39.29999924
15.6485016911351 5.29610158417146 41.44800187
9.16968675236078 6.9173580765608 40.55599595
16.4022990056652 4.76448171365095 38.93300248
8.30484508033151 4.20038702503639 42.50699997
7.48938110302721 4.12838343245901 40.60499955
6.70883199162457 4.05766641054382 38.73599625
5.95570014467839 4.00194459151906 37.03899765
7.14684275534392 4.88493134633585 41.09699631
4.97830572195976 3.77014004979581 34.47500229
7.00673964668134 5.27134619005058 41.45000077
4.48435131668768 3.89178752413172 33.59800339
3.6838825422738 3.79236666709789 31.61400223
6.98571087103027 6.22154517084072 42.96100235
6.94028161730307 6.6953580905736 43.60899735
3.97429259588536 5.01975507883288 34.2800026
6.51358380250993 6.88940843803723 43.02799607
1.75584549370911 3.93109447608709 27.60100174
5.72553708966208 6.83240004835027 41.19199753
4.1550335916711 6.18716267900617 36.61800004
5.40101073124954 7.10013983960381 40.84000016
1.22888389627586 4.56896733750275 27.49999619
4.08218707348745 6.64598039584862 37.24100113
4.56562709093399 6.99943241190778 38.81599808
1.00652899424392 4.91039657254622 27.58400345
4.32335252589081 7.3121578118326 38.83199692
0.764254429200734 5.22312197247103 27.5359993
0.54189952716879 5.56455120751449 27.62700272
0.319544625136847 5.90598044255796 27.62600327
0.0697724586484503 6.232414474711 27.5850029
-0.167577646273916 6.60126097421092 27.65999985
0.398114164541989 6.99969859894134 29.56899643
-0.444767077218765 6.91269980347353 27.59499741
20.3601009141193 4.95227666582598 41.4299965
4.30698202332701 4.15096496580583 43.21300126
4.7957901459503 4.16897695507657 42.19700242
20.160016993895 5.44836056736652 42.66800309
20.5044630153188 5.20932461123162 41.52099991
5.33450833736568 4.16085825055306 40.98800278
7.6893762942403 5.91183655729623 27.60899735
6.11785241262068 3.96596497748316 38.91499711
4.41767146478145 5.51157998783649 45.19099808
2.95834541780644 10.1986900037333 4.79899979
6.41451786152084 4.07479110970271 38.4109993
3.58211036644354 9.96994661289598 6.46599961
4.17096044917897 9.73991665139646 8.06599808
7.29905737403339 7.01624655952752 35.44600296
4.75231293046919 9.52359532212515 9.55899811
2.07314043771 7.84457624345378 14.15599823
7.99833071118971 3.97931869366665 40.62700272
8.5016903916475 4.36147454484445 42.36700058
7.30003339315643 3.95358728042273 38.9829979
7.14001062148261 4.31129828901881 39.2840004
7.10957657064583 4.75769394429523 39.96400071
6.56828523790606 4.83564238062207 38.84900284
7.07914251980906 5.20408959957165 40.62099839
7.01379360307062 5.64919868418587 41.19600296
3.96062832816272 3.87248896419878 31.50500107
6.97586195078863 6.10930297169052 41.89300156
3.96253600190322 4.39000092194073 32.33400345
7.03260415344204 6.65680533521331 42.89699936
6.79032958839885 6.96953073513812 42.9050026
2.10242101140136 4.01378991451238 27.6040001
3.93400962480694 5.35390853495909 33.89300156
6.01727807844142 6.88510508099471 41.05099869
6.32379244758322 7.10617341236446 42.0340004
1.86764404780338 4.31280668220897 27.62099839
5.16947237655985 6.7419851859518 38.89599991
4.19957555528644 6.49647201200033 36.37099839
4.98952994187478 7.07099235942924 39.00200272
4.24389569637381 7.00156190817624 37.27199936
4.72733571382035 7.3550139242354 38.90400315
0.676190885598698 5.90513751695169 27.56699753
0.156726889610663 6.52930174613912 27.40400315
-0.0307131465196173 6.87201755184478 27.56699753
0.377972679002782 7.16677532700445 28.98700333
-0.24557044710635 7.19973815466002 27.64200211
4.45471582695158 5.83459795305888 45.63399888
7.07554899485603 3.973285120906 36.81200028
20.6139102506166 5.46508598597506 41.65199662
4.49176018912171 6.15761591828126 46.0850029
4.93101315899766 8.08973450136051 22.11800004
7.0851760925697 4.28130788323796 37.27199936
15.8352762596815 5.54072746801107 41.46500016
4.2723333444589 8.31719132153564 20.33599854
4.47139688105454 6.52047320952613 46.72500229
4.63825178658968 6.73639525824709 46.67599869
7.19417968281162 4.92863038434492 38.08700181
5.25687045257799 6.64731133101641 45.16800309
-0.0426028340185318 4.15850693175663 40.6550026
7.10891110306194 5.3450356338405 38.94700242
16.7409332768563 5.25244691066798 38.93999863
8.32498656587072 4.03331029697329 40.56000138
8.8283462463285 4.41546614815109 42.29899979
7.64660891084868 4.03628271884801 39.0320015
7.34200221544738 4.33272634522021 38.89300156
7.13956697642667 4.70285941538232 39.02199936
5.28996637375035 3.8515489175589 33.58600235
6.83496028102537 4.99930304175452 38.89100266
4.37982854151065 3.69214724896338 31.29899979
7.17079958836412 5.75287853375663 40.87700272
3.78370267985798 3.74010527950938 30.09399796
6.37033081395024 5.6534576767228 38.89200211
3.86786214696783 4.30260284592259 31.16900254
7.29178159511614 6.83417462857398 42.87199784
2.5764557536622 3.86343860505782 27.58700181
3.74767870131649 4.71772152475597 31.62299729
6.11195193337681 6.97250315701285 40.51900101
3.97575662456992 5.92882816293834 34.05700303
5.39865941245311 6.97418900822538 38.89799881
3.92282976939752 6.41634971489943 34.77099991
4.27668106600701 6.68111708427825 35.97700119
5.11397238006305 7.29933646971623 38.87199784
3.99949163506216 6.99255591354087 35.86999894
4.27858873974751 7.1986290420202 36.78899765
1.57750018122539 7.25293119686599 30.93600083
0.789453468377538 7.19592280717903 29.10899735
0.123497874921531 7.24130769640063 27.64999772
5.50105269136168 6.85209788883354 44.97199631
7.26077080570666 5.58837494701792 39.00400162
9.60206322386983 3.91255011274923 31.05099869
7.04569168259196 6.11187611301491 40.34099961
3.43907920041182 8.53821528839979 18.06399918
6.4437540707066 6.88683529671284 42.89999772
16.8852953780558 5.50949485607362 39.04700089
7.01033317163437 6.50215066871623 41.02199936
10.5222717988791 3.9884134173132 29.14200211
6.70293151238071 7.06420459007351 42.64699936
7.76625998243291 6.29226219275591 39.01399613
8.56309086738816 0.797585081550336 4.70800019
2.77290178442785 8.77938074080316 16.28300095
9.16906564928248 0.861869250154544 6.39099884
16.3107750306269 6.29944924266197 41.6079979
8.66406448211776 4.1297143676268 40.61300278
9.14000689811909 4.49687501591418 42.21899796
8.01310409155217 4.14768199239195 39.18899918
7.2201329185835 4.03455250312989 37.26800156
7.33170965014981 4.61204527243352 38.44199753
5.66653229722344 3.87940982707129 33.63699723
7.23144586750971 5.05586778638555 38.96100235
4.62680574414669 3.63132351179542 30.91599656
6.96175403801007 5.35359798341994 38.87900162
3.99576501659235 3.67799497167922 29.53899765
7.16050702306655 6.03219746096994 40.42799759
3.16038137627681 3.57728754398319 27.6040001
3.7659125131152 4.03313283895091 29.64699936
7.08766050488291 6.4910151778124 41.00999833
7.5985177867859 6.85946239676198 42.75799942
7.02231158814447 6.93612426242662 41.65800095
3.85947725541076 5.09943373087784 31.6079979
5.99008263651294 6.67432931492253 38.96200181
6.34393393312243 6.93909668430135 40.13499833
5.74780807146975 6.98705471484734 38.89200211
5.19901913728477 7.07871178340241 37.87499619
5.47811624197011 7.28478491188174 38.82400132
1.97385267419294 5.22573947830102 27.62700272
4.05712112782742 6.75693602433663 34.80700303
4.79973858694807 7.28775733375647 37.29099656
4.05902880156792 7.27444798207858 35.59499741
1.20954097183733 6.23245883921659 27.6099968
1.98148336915493 7.29578730926879 31.02799607
1.16601939185063 7.22378371669141 29.11899949
0.515059001285046 7.24175134145656 27.66900254
11.1408904648674 3.89932949008253 27.61800004
11.3077453704026 4.11525153880349 27.60499955
7.61821562726918 7.08394679506238 40.62299729
11.4671026744925 4.34488221975268 27.59499741
8.19442182591062 7.00728492939774 39.18300248
11.0814863918785 5.70119388474083 30.64599991
-4.29179081520719 5.80598284695141 38.83400345
-4.24658338400796 5.5279504904003 38.88699723
10.3799948294425 10.6959273824193 1.52500153
12.6723531979366 5.98357396284005 27.53999711
-3.4283244428513 5.3343437879926 41.11500168
9.76474786587923 1.20547234597206 8.16400147
9.81678743093978 1.50107304673799 8.38499833
12.1723652199039 7.02800315350965 30.32100296
9.8803617674545 2.62220846757783 8.83800126
9.58919751724787 4.26169877176587 42.07300187
8.91831746367104 4.25096256141237 40.61300278
8.22002014563776 4.22523114816845 39.00999833
7.10061494051605 3.862329492418 35.94800187
7.25012332436435 3.97971797421698 36.480999
6.45715215139568 3.86658848495492 34.50600052
7.26702620099527 4.46981266750247 37.27699662
7.77038588145305 4.85196851868028 39.03100205
5.38508387374166 3.54738586721353 31.65299607
7.25651181316973 4.94491215789754 38.04999924
4.83629493955668 3.6390429357686 30.62099839
7.26591708835544 5.44871548341126 38.92100144
4.31492326982815 3.74569520721409 29.60499955
7.02364252331226 5.76144088333608 38.88899613
3.5268765569803 3.68868681752713 27.79300309
6.74645309236741 6.0728797125987 38.81299973
7.86284151110879 6.897172226516 42.64300156
6.53159579178067 6.40060031541393 38.86300278
7.13712692861906 6.85644561038165 40.98700333
3.82478421203706 4.90236659703389 30.47600174
6.28182362529228 6.72703434756697 38.89599991
6.56092072997763 6.9331074760463 39.86500168
6.07446392615076 7.04104631815398 38.94900132
5.43100113703038 7.04530531069091 37.52299881
5.83218936110757 7.3537717180788 38.86400223
4.07233815324581 6.53373819669842 33.67499924
4.9370467317583 7.16695278502682 36.64400101
4.36084053311687 7.24361465069146 35.46400071
1.82345700023279 5.89147324922906 27.6590004
1.35132993171245 6.55933651642556 27.64400101
1.51024359074645 7.18052832373827 29.05399704
0.859283200180867 7.19849594850342 27.59699631
12.7185810127645 7.00617581675791 29.07799912
10.7244408508663 10.4568914262844 2.4430008
13.3222044758624 6.94450915398369 27.60300065
10.7696482820655 10.1788590697333 2.51599884
-8.29111790089626 4.84748770361539 27.55700303
10.755318546759 9.61893464464444 2.31900025
-3.41803187755373 5.05502486077928 41.08199692
10.2126075498402 2.1449794809143 6.2879982
9.82765673481006 2.91394945635717 8.76300049
9.7674541007204 3.21939907736474 8.64099884
9.63405003240235 2.09569051520051 4.68700028
9.17110641653976 3.46313767109249 7.07400132
9.87601404590639 4.25828270483521 41.99000168
9.2250536553408 4.27625032960037 40.57999802
8.49933907285107 4.23552371346602 38.92000199
7.32509933881646 3.84263165193472 35.64500046
6.46979603548967 3.71322038912004 33.56299973
6.89840152402331 4.03668199939835 35.05599595
5.66182965963058 3.62750816431443 31.66199875
7.28157775882976 4.83395652940954 37.2290001
5.02329133063103 3.68788825642645 30.38299942
7.17381637474444 5.29148767558979 37.77900315
4.01098204201074 3.45479714404101 27.71200181
7.27039790342033 5.89639770934988 38.93600083
3.67895808215298 3.73624556752279 27.45000077
7.27230557716083 6.41390966709182 39.82999802
3.64595088999182 4.25247095460254 28.29500199
7.27421325090133 6.93142162483377 40.69099808
3.60052163626462 4.72628387433541 28.95100022
4.00920746178702 5.02104164949507 30.30399704
6.71792671527113 7.03678732561706 39.61899949
6.27130923746675 7.20213383796204 38.90099717
3.89093168987617 5.9536722860704 31.64200211
5.56551431798825 7.19011105694635 37.31000138
3.94017629108437 6.51488328182141 32.62700272
4.62795922129211 7.0157141854604 34.97199631
3.98942089229256 7.07609427757243 33.66900254
1.94789943842106 6.11981735951605 27.60499955
2.7870984262176 7.25554870269597 31.34299851
1.46077716701029 6.81509789116901 27.62099839
1.97163444891329 7.18354511011859 29.41499711
1.2110050005219 7.14153192332205 27.59099961
10.230397716583 1.85195192147276 6.28699875
-7.25352084408798 4.77384262433107 28.53300095
3.96040650563476 4.06826952738054 42.7879982
4.08484894382303 4.29661363766754 42.87399674
20.2814426457029 6.13809553582036 27.855999
20.2122783814835 5.54818070495069 27.58600235
4.27162351236941 4.54123952150715 42.88799668
4.81078534884072 4.14155969062012 41.00999833
16.8067258386507 4.41577669969024 28.33900071
17.0059224687631 4.70281505087673 28.95499802
5.13486806219734 4.26538102573009 40.50200272
22.1156931294441 5.12884739808598 43.18099595
5.60162702554093 3.932957785322 38.93200303
9.68409319471122 4.15331628460226 40.64000321
10.0379444913207 4.41808365398108 41.86999894
7.36493866483894 3.90003932217202 35.14799881
7.29209214665529 4.35885703901447 35.7879982
7.23916529148288 4.84637859097557 36.44500351
8.06895900409371 5.47830660864177 39.30299759
7.28840989269108 5.40758958672658 37.47199631
4.38475300163147 3.74826834853848 28.32899857
8.48146017709711 6.80808829928532 42.42499924
7.22496864969313 6.37021062908275 38.99699784
3.66844369432745 4.21134505791786 27.57600022
7.4661341020965 7.03638804506672 40.59000016
6.84259097598736 7.0693508727223 39.25400162
3.88409955601486 5.38003922875335 29.93899918
6.29380204180238 7.16100794127736 38.21899796
6.44331042565067 7.27839642307635 38.71200181
2.94654445931871 5.2056423572674 27.58700181
3.6542470525377 5.73517709602504 30.07100296
2.68927469138511 5.54578502164867 27.59599686
4.15951440673599 6.63484490494479 32.6550026
4.77254314501959 7.07698156768429 34.71400071
3.78015351941054 6.87259429041749 32.17100144
1.95987785493116 6.55379095322644 27.62499619
3.0563466106613 7.34937963202509 31.35300065
2.14620877842161 7.18997796342957 29.12399674
1.46783112339958 7.1929503853043 27.60100174
5.79589919553253 4.16387503693338 38.87499619
5.98267376407891 4.408500920773 38.85899735
6.84378881763837 3.81091103043575 35.97800065
0.94055897442718 10.3061408362795 5.31700135
1.29250259729618 10.0533962479163 6.29399872
4.31740768214135 5.95540250178852 45.06200028
6.13453346672363 4.65184023395041 38.88000107
7.18286673388541 3.90731510108926 35.38000107
22.0081535678867 5.39059798108448 42.94299698
21.9978610025892 5.66991690829779 42.97600174
4.45427218189565 6.22615907942239 45.17699814
22.0299809046385 5.93681377394507 43.14300156
6.32880563671523 4.8827574855618 38.86400223
9.86851644446118 4.27199133706344 40.61300278
10.2148701396255 4.55046733867049 41.82500077
9.2723905828085 4.31994936760944 39.40099717
9.06503088366698 4.63396133819645 39.43999863
7.39492907061979 3.84520479325911 34.43899918
8.80283665561255 4.91798290300261 39.36700058
7.3569974183378 4.30530908076376 35.17899704
8.56805969201458 5.2169996706992 39.32699967
8.32578512697139 5.52972507062402 39.29999924
5.2252829245958 3.70931631262786 29.47300339
8.05609329747175 5.82745526765841 39.21400071
7.25562452305787 5.72803441062457 37.28699875
8.71836663696354 6.83080292614892 42.35699845
3.33775066963749 3.31811010230909 24.71099854
7.23761253378713 6.21684253324787 38.02599717
7.24701780897284 6.72064585876159 38.92899704
7.73045782641939 7.07409787482074 40.60100174
7.08699503729901 7.07835686735767 39.12800217
3.51055041892209 4.89078746107412 27.63199997
6.75004661732044 7.30368419126434 38.80800248
3.84638972626084 5.64436295307624 29.67399979
5.97699510736301 7.21925853712093 36.96200181
3.7810408095224 6.08947203769046 30.20799637
3.76302882025165 6.57828016031376 30.98700333
4.83208031152535 7.35887363622199 34.59399796
2.52645695585892 6.16910632522984 27.56899643
3.81977102290506 7.12578252383655 32.04500199
4.15370265650331 7.36184605809672 33.11899949
2.30410205382698 6.5105355602733 27.62600327
3.42049047256837 7.3348280741906 31.50699997
2.03441022432734 6.80826575730769 27.57899857
2.87170153838338 7.42648514274567 30.4070015
1.81955292374061 7.13598636012293 27.63100052
7.22740869750075 4.21662443408342 35.77399827
4.44140647527369 6.57530773843903 45.80099869
2.32774833530803 9.8538003372536 9.05699921
4.78048439152073 6.67171180909254 45.16199875
1.88135268003161 9.82336628641682 7.8540001
6.6550178463403 5.32831021523195 38.84900284
7.1217768096839 4.99588697482386 37.28300095
5.14697957222422 6.78311108263648 44.5549965
9.77016033556157 5.23332580875741 9.15200043
9.7523701688188 5.52635336819895 9.18399811
6.84179241488669 5.57293609907156 38.81699753
10.305063179496 4.19018318875001 40.60899735
10.6115775486378 4.41125152011976 41.65099717
9.81110877422388 4.31183066308592 39.74399949
9.34457163340825 4.44847334031226 38.9050026
9.07487980390862 4.74620353734665 38.84000016
6.93376003498091 3.64640744369703 32.32200242
7.34244586050331 3.9411652188567 33.6590004
8.82510763742022 5.07263756949969 38.87299729
7.41910772616795 4.51737141749813 34.82400132
8.57533547093182 5.39907160165273 38.82500077
5.06614744303383 3.28390506849691 27.63499833
5.69909584432867 3.75474556635505 29.82400132
8.34548296745467 5.75420946892442 38.94900132
4.61203236378424 3.46296021307012 26.9050026
8.09571080096627 6.08064350107746 38.89999772
9.05509323441416 6.801256165424 42.230999
3.49755161878335 3.15617965689476 23.9790001
7.24040749763949 5.95123223826278 36.85100174
7.84593863447787 6.4070775332305 38.91699601
3.30261398120786 3.51260409482865 24.07799912
7.63108133389114 6.73479813604574 38.99999619
8.10702374989248 7.10195878433313 40.60699845
7.38880676884796 7.04752353597056 38.99599839
3.57310437180817 4.71128867144499 26.68600083
6.63567492190177 6.99180171694579 37.24599839
7.11161733790311 7.35896236523318 38.86999894
3.59493170855991 5.25750446430558 27.63799668
6.20897710710863 7.18585206440942 36.60899735
3.8485192225293 5.96609434763643 29.4129982
5.27142201041249 7.01145519292348 34.20699692
3.0878897741379 5.92408116083989 27.63100052
4.85714625718537 7.24791800773398 33.71400071
3.97442568940214 7.10351154202888 31.53499985
3.69723625845729 7.4149503712915 31.44500351
2.3310756732275 6.91709188952724 27.56899643
2.7870984262176 7.25554870269597 29.11800004
2.08130350673911 7.24352592168028 27.58099747
7.2012336392009 5.30648287848021 37.6040001
6.9861545160862 5.82998404447721 38.90199662
5.99478527410579 6.92623097767939 42.91800309
2.4502830997558 9.56463248979865 9.36899949
0.839274808158439 9.44932913976253 4.89599991
20.4637363991844 5.93503919372135 42.74599839
20.6380889061648 6.13725261021409 42.69600296
20.8103119168767 6.01773463214664 42.08800126
9.73458000207602 5.81938092764049 9.15200043
-6.28260363918593 6.31999000875151 41.81299973
16.3506143566494 6.35685691289927 27.55299759
-7.26514434455334 6.22784493063492 39.07699967
10.6865535630899 4.2741651978375 40.73399735
10.9382334033188 4.4652431234264 41.605999
9.96083898060014 4.23343858170315 39.07200242
10.1651818933613 4.38081746928298 39.76700211
9.66372988664405 4.51617357584712 38.91499711
7.17323963617174 3.5992923387573 31.87399674
7.45233674085708 3.80536546723663 32.8579979
6.6518679664432 3.70594461020279 30.94800187
7.4144050885751 4.26546975474127 33.57999802
5.98098791286638 3.69520839984929 29.48199845
7.4711472912285 4.81297211826406 34.55800248
5.20043880146374 3.62449137793411 27.59699631
9.39181983186476 6.77170940469909 42.09499741
4.03862112899516 3.27401178374968 24.52500153
3.25807201759252 3.20329476183449 22.62900162
4.72081413149819 4.30606327735884 27.69700242
7.29994466414525 6.23312430680049 36.56899643
8.46367001035433 7.10111585872686 40.60100174
4.45112230199855 4.60379347439323 27.63100052
7.76537269232105 7.07538444548294 39.02299881
4.20884773695537 4.91651887431805 27.57500077
7.14182956621192 7.10834727313851 37.65099717
3.66755640421559 4.99446731064489 26.51800156
3.96657317191218 5.22924427424286 27.56699753
6.525784041548 7.12760146856586 36.31000138
3.724298606869 5.54196967416767 27.57200242
5.35345198125388 7.2522213647765 33.96699906
4.15862711662413 7.41796715767182 31.64599991
2.49535743743825 7.20284367005153 27.58900071
7.15793388174216 6.10202719277327 38.98199845
10.0882982051687 4.00039183382331 29.07000351
6.36877805625449 7.0239216189951 42.22199631
3.28353724380288 9.34360852293449 11.63299942
4.6255191734845 9.16930038045973 15.25899888
14.2854909858024 6.42060870743636 29.69900132
19.1453563864783 5.08931862360265 27.54400254
16.8668397437291 6.38986410506043 28.98800278
16.6121431171199 6.66017703763837 28.34900284
-6.19498374063982 6.02953559063437 41.95000077
9.81124186774066 6.39558712628193 9.55400086
-7.17752444600723 5.93739051251778 39.24899674
11.4321878085908 4.34359564909049 41.45100022
10.7688053564592 4.31915080650876 40.0359993
10.2350116251647 4.38339061060738 38.92200089
9.76545769796872 4.98142414600055 38.94500351
10.0171375381976 5.17250207158946 39.77299881
7.46240748362669 3.72182710320507 31.74899674
6.55976725283221 3.54871680238132 29.52599717
7.31480677351889 4.12195057914803 32.12399674
5.75929847841833 3.44929594534749 27.61800004
5.50952631192993 3.77572997750053 27.59299851
7.40837151581445 5.18825147107496 34.09499741
8.81627910080722 6.26102958081846 39.00500107
9.70090734233095 6.92294800426551 42.05599595
5.27474934833196 4.07474674519711 27.57699967
9.05744455321058 6.92720699680243 40.65600205
8.44139902854666 6.94646119222978 39.3049965
3.05585860109978 3.37764726881485 21.58499909
7.30207416041371 6.55485570136067 36.18700028
3.26960678904669 4.0288294819084 23.06299973
7.31897703704463 7.04495039464616 37.00699997
6.7976053673161 7.15160266609165 36.01099778
3.66968590048405 5.31619870520507 26.08900071
4.0982913890177 5.63966031548339 27.54800034
5.64519297003322 7.30492639742094 33.7329979
3.62616432049736 6.30752358267989 27.605999
3.93267868963915 6.52859191404964 28.66399765
5.25341002114174 7.50026331554677 33.22300339
3.38388975545417 6.62024898260471 27.59900284
4.4728609097391 7.42954629363158 31.34499741
3.85681538507518 7.44880048905893 30.06699753
2.90683822681301 7.23199115022611 27.62499619
7.08766050488291 6.4910151778124 39.76099778
10.6919216682666 3.93872517104908 27.61200333
3.37115714234899 9.05315410481735 11.81100083
6.92998905200551 6.97467701778691 40.90999985
7.5190609572689 6.54886649310562 38.87600327
0.839940275742334 8.86198745021726 4.75600052
-1.73169265545951 6.92121778854738 28.99100113
9.76603443654143 6.67361948283304 9.4469986
-7.15973427926445 5.64436295307624 39.21699906
9.72832460678741 6.93794320715593 9.41500092
9.71053444004463 7.23097076659747 9.43199921
-11.3118083577101 5.22565074928983 27.64899827
11.7738388661623 4.37016998794067 41.37299729
11.1502957400531 4.40313281559625 40.11400223
10.5740895414117 4.47979468126089 38.92200089
10.6781686715328 5.07099608279275 40.15299607
10.0745452084349 5.13266274556697 38.90800095
10.3536423131203 5.3387358740463 39.87499619
7.6269110703654 3.81179832054761 31.41699601
6.62209938319032 3.56499857593394 28.72600174
7.47931036025761 4.21192179649056 31.69500351
5.56995076854755 3.2744997933112 25.96300126
10.1899372874822 6.7451794303545 41.86500168
7.39594945424842 5.14583900372809 33.07300187
9.08295414392654 6.42469024195091 38.91900254
7.33060053750999 5.59094808834231 33.67200089
9.0176052271881 6.86979932656514 39.52799607
7.25775401932634 6.04976580518476 34.27900315
8.61832467685141 7.07884487691919 38.9849968
2.88385741291585 3.30138468370054 20.11199952
7.45650700438282 6.72836528273476 35.89699936
7.24657416391691 7.1122069851251 36.02699662
3.07702047026763 4.51120475122071 22.56499863
4.51984292116205 5.58526943162641 27.50100327
6.64295070081902 7.17387364789932 34.84699631
6.03932723772113 7.23554031067354 33.6099968
3.50944130628226 5.86969027698291 25.76599884
4.98908629681885 7.46255348579275 31.62099839
3.72509716796967 7.03838444781841 28.15999985
4.18111992095976 7.37684126098714 29.72500229
3.31831901618777 7.26113863040069 27.63699723
3.67217031279726 7.52590599977951 28.87299729
3.06104924825416 7.60128129478195 27.64400101
7.15425162777795 7.15075974048539 40.64000321
7.5985177867859 6.85946239676198 39.20499802
4.95754313334225 8.88785195697796 16.13700104
0.892645308386777 8.57024646143792 4.81399918
-2.2924600061546 6.57890126339206 40.73900223
2.4805840570758 7.03448037132623 40.58299637
9.69274427330185 7.52399832603901 9.46599961
-7.14944171396688 5.36504402586293 39.16800309
-6.16410604474712 5.19157880899443 41.80900193
-7.20148127902743 5.069443325097 38.96200181
12.043087050606 4.4640009172698 41.19099808
11.1952813487244 4.32088102222689 39.10499955
7.50504177350153 3.51362447845729 29.72099686
6.88149864739239 3.54658730611286 28.43600083
7.58361131290667 4.60734263484067 31.69800187
10.4816782762616 6.79788446299894 41.68500138
6.1227768727415 4.02208607705827 27.54099656
9.65379223739123 6.68346840307468 39.68400193
9.93288934207657 6.88954153155401 40.67699814
9.19967715814163 6.86252354764789 39.01500321
2.64291378304046 2.43942670453481 17.29399872
7.36507175835572 5.98379578536802 33.5359993
2.74699291316155 3.03062810606667 18.47100068
7.42181396100912 6.53129814889081 34.52900315
7.38388230872714 6.99140243639545 35.27599717
2.79322072798943 4.05322995998453 20.29000092
7.1141904792275 7.28913263342985 35.15400315
6.28630444035717 7.17471657350559 33.13199997
4.40928657322438 6.30841087279175 27.56599808
3.51906840399594 6.17771303931487 25.375
5.01672538380327 7.28176812550142 30.50899888
5.34315941595631 7.53154029198981 31.61400223
3.69790172604118 6.82760868174623 26.82600022
4.53519304009722 7.4458280671842 29.7290001
3.75464392869458 7.37511104526901 27.86099625
3.43011757028204 7.64285083652256 27.60200119
7.77287029376626 7.06167581325471 39.15099717
11.2049084464381 4.62890378455885 27.59599686
11.0135643338156 6.21613270115838 30.53300095
5.16982729260459 8.62996108596605 16.61299897
11.1429312321247 6.50059791102048 30.70599747
12.243304064347 6.05167347892526 27.51700211
0.875520609227892 8.27593233133418 4.72299958
2.14643060094958 6.99419740024781 39.68899918
3.20909360341788 6.80959669247548 42.59599686
8.81707766190789 7.75744435446919 7.06200028
9.67495410655907 7.81702588548055 9.45899964
-6.15381347944955 4.91225988178112 41.79500199
9.65716393981629 8.11005344492208 9.49300004
12.264998307582 4.51413280858985 41.12099839
11.4446098701569 4.38600811643736 39.03999711
11.1475007762008 4.66874311058133 38.93099595
10.9052262111576 4.98146851050615 38.89799881
10.6629516461144 5.29419391043096 38.88499833
10.4281746825164 5.59321067812755 38.90199662
10.727191450213 5.82798764172552 39.98199845
7.07106817979114 3.52560289496739 28.10200119
7.47225640386832 3.83406930235528 29.47099686
10.1933977189185 5.89222744582414 38.87700272
6.42760539067076 3.52986188750431 26.70100022
7.63117006290233 4.45526110966798 30.91499711
9.95112315387528 6.20495284574895 38.85899735
10.7609972034749 6.80817702829651 41.64899827
4.89951436002665 2.87220245659419 22.24900055
9.70884858883209 6.51767824567377 38.90999985
10.0626998854416 6.78244561505259 40.04899979
10.2122082692899 6.89983409685157 40.59099961
9.49399128824536 6.84539884848901 38.94600296
2.65813080845884 2.2162288768966 16.24100113
3.01198210506834 2.48099624627542 17.50299836
7.57713409509009 5.92168547753787 33.24499894
2.38843897895921 2.51395907393099 16.15200043
7.4295333849823 6.32180895348082 33.59000016
2.7441979493092 3.29623840105175 18.22800065
7.30633315295063 7.19831849048105 34.70599747
2.92001448497412 4.40752490164995 20.44900132
6.73762455575441 7.26127172391747 33.57600022
3.13376267292103 5.0587071147435 22.00199891
4.53115587008826 6.60658471488207 27.61700058
5.69488121629734 7.47457626680844 31.68600083
3.58117871182609 6.38977537604925 25.17399979
4.92182970633992 7.39015061266503 29.7820015
3.55566912111013 6.89229213090077 25.94500351
3.78183937062307 7.58588681134119 27.6550026
3.39005642173159 7.78122372946702 27.09399796
-3.41523691370137 4.7894145657942 40.99899674
11.5539683764435 6.92130651755857 30.46200181
1.02547263813212 8.00175968676965 5.05899811
12.3951637669918 6.29501279210267 27.57600022
6.68917851564689 8.19647550181718 20.70700074
7.75933911956041 7.99816616181663 23.61800004
2.01706370264049 6.70973219038572 39.22099686
4.39642086660242 6.65755953180839 45.76800156
9.64687137451872 8.38937237213539 9.49300004
-7.05902685156842 4.8089793127607 39.27299881
5.18122897054199 7.37173934284395 29.67699814
9.62908120777594 8.68239993157693 9.50999833
5.8919483501413 7.43988322343474 31.61600113
12.3348280393853 4.51670594991424 40.47099686
11.6290331199068 4.50468316889854 38.92399979
8.66193498584929 3.80798297306661 31.31399918
7.81412928396772 3.66486307802371 29.19099808
10.6025271894968 5.79542409462029 38.92300034
7.14324923039089 3.65412686767021 27.76500321
11.1427094095967 6.69637847420223 41.54199601
7.45167127327319 4.3927071567819 29.66800309
10.6213377398682 6.80303074564772 40.58099747
4.83460908834415 2.9257504148449 21.49399949
9.89562315737848 6.76230412951338 38.97700119
3.46844850311436 2.42789193308064 17.6079979
7.52274321123312 5.50013394539351 31.65400315
2.16954450836351 2.0024363244441 14.11700058
7.67415926882191 6.13503438493444 33.08900071
2.42313202233291 2.71102620777494 15.79800034
7.36955257342061 6.43147801130664 32.88399888
2.49979388799755 3.28723240641638 16.97100068
2.77139339123769 3.50701416712393 17.95499802
5.57478649965718 5.61015791926406 27.58800126
7.34404298270465 6.93399476615816 33.67200089
7.09427081621626 7.2604287983112 33.64899827
6.54548188203127 7.35208586686627 32.62499619
3.16588257497034 5.32560398039078 21.7859993
4.86038486609366 6.59074658638538 27.62399674
6.02411021230274 7.45873813831176 31.62499619
2.90861280703673 5.66574664477205 21.79499817
5.2908980283678 7.43172015440564 29.95299912
3.56338854508331 6.68280293549079 24.92800141
4.6797769638247 7.50709544940809 28.71500016
4.08857556229284 7.61117457952918 27.63799668
3.50487176220619 7.70154507742206 26.46200181
12.0228568360556 6.91061467171066 29.4129982
-4.16087115920235 4.71998411454121 38.88699723
12.2321242089376 7.1141146588656 29.24899674
7.38277319608731 7.97030525230424 22.64099884
12.7412956396281 6.76926935689148 27.56000138
-3.50219134466359 4.49252729436607 40.66399765
7.94420601436629 7.72528008791429 24.13600159
2.12460326419784 6.44798160738722 39.49899674
-2.17462787929968 6.03783175318025 27.54600144
5.31942440546407 6.46781254138727 48.31899643
9.59137137802192 8.94672365589982 9.50199891
4.42530215974344 7.58162781880427 27.61200333
9.65090854452768 9.22861572443753 9.72399903
4.93402994537798 7.62834364319366 29.02900315
3.3975540231768 7.7675150972388 24.87699891
12.9260294409172 4.41262681979314 40.8579979
12.2003148584275 4.3719002036588 39.26600266
11.8633664384489 4.59722752756547 38.88199997
12.0496973619393 5.2334145377686 40.36500168
8.92625871017218 3.84569280282063 31.26700211
7.67726478421342 3.39410650038984 27.76700211
8.05853334527936 3.67386907265908 29.08700181
10.7759924063653 6.78075976384005 40.20699692
7.50606215713016 4.81425868892626 29.75999833
3.33158400336006 2.15713535544677 16.18399811
3.67793769852435 2.43561135705381 17.42200089
6.63083919079214 4.65614359099293 27.58099747
2.22460085980438 1.83664616704318 13.19200135
2.57845215641388 2.101413536422 14.43799973
7.57220963496928 5.86556437796277 31.64100266
1.9823262947612 2.149371566968 13.23400116
7.62895183762268 6.41306674148556 32.72300339
2.3929197940241 2.96164129986961 15.44799805
5.89651789421737 5.6080284229956 27.59900284
7.3960825477652 7.22959546692409 33.54400254
6.3308464039725 7.48402590649975 31.61800004
5.55029729256987 7.41330888458456 29.79400254
4.42530215974344 7.58162781880427 27.63100052
3.34573628064422 7.27613383329111 24.71699906
3.80175903363431 7.61459064645984 26.28300095
12.8856577408276 7.02631730229712 27.63399888
9.51967833698369 1.78380804088196 4.27700043
-2.79471057397256 5.21784259630547 40.87800217
7.98941344556553 7.44724773136318 24.16799927
9.77779103052356 7.30337363972519 29.0320015
4.74086688802621 6.41852357567349 46.65400315
9.8053413884968 9.40212530581162 3.72299958
9.60570111332845 9.50664808098864 9.66400147
8.97443856324614 9.7491001040542 7.96799851
8.39801054207674 10.0215425329006 6.39300156
13.270253639813 4.36937142684 40.72700119
12.5993735862362 4.3586352164865 39.25100327
13.0204814733246 4.69580545899304 40.75999833
12.2549275648124 4.5976711726214 38.89899827
12.7582872452702 4.97982702379921 40.62099839
12.0201506012144 4.89668794031799 38.89200211
12.4686757527593 5.24885338571495 40.48199845
12.2338987891613 5.54787015341154 40.49100113
12.0066194270086 5.8331782888799 40.45000077
8.55483906934787 3.6781724297016 29.25100327
8.78659924656553 3.84054652017185 30.03899765
11.7444251989541 6.11719985368607 40.32799912
7.8640393527598 3.63873238422945 27.71999741
11.7812477385963 6.63599838209021 41.29899979
7.66910171518431 3.99515682216333 27.86700058
11.2872933333242 6.75764585642612 40.44500351
10.6164132797474 6.74690964607262 38.9129982
4.18431416536246 2.35637635006478 17.5379982
7.51098661725098 4.87037978850136 29.00899888
3.03749169578429 1.9784794914239 14.40599823
3.54085137624208 2.3606353426017 16.1040001
7.52039189243669 5.37418311401508 29.88699723
2.46878309858807 2.04143272486031 13.2669983
7.36036912076287 5.73189412261116 30.11700058
2.05708048668535 2.20806580786749 12.61999894
6.39047229948945 5.48638094865969 27.59900284
7.58161491015498 6.36936770347648 31.64200211
2.12132029078396 2.74185953916206 13.66199875
7.51626599341655 6.81447678809071 32.25899888
7.43099741366687 7.23088203758628 32.75799942
2.36439341692782 3.92554891288797 16.16400147
2.71824471353731 4.19031628226679 17.36100007
6.92954540694958 7.36623814415042 31.89799881
6.30600228084044 7.399200971806 30.55399704
5.19901913728477 7.07871178340241 27.60300065
5.85938480303606 7.56454748415098 29.93200303
3.08531663281351 5.99391089264322 21.22599793
4.98416183669803 7.40643238621765 27.69299698
4.69455034418715 7.67545874813339 27.54999924
3.11912238607535 6.9741002792142 22.84899903
3.52031061015254 7.28256668660209 24.30099869
4.05108755506678 7.67971774067032 26.11200333
3.53721348678346 7.77266137988758 25.09500123
10.2132730174241 1.55763779136902 6.14699936
-0.41925748650281 6.41018304862201 40.22999955
-0.30422032350025 6.13472383339529 40.45199967
9.26906324488903 7.2566578153358 27.63799668
10.1766279358043 7.48588921573465 6.38600159
10.4439684465075 7.06220818732183 30.79800034
9.2868534116318 6.96363025589426 27.63699723
6.00552148445929 6.25535092410256 50.16499711
8.00365445186087 10.2867091828298 5.34099961
3.68734297371005 2.93941468256753 23.39799881
5.03442682153486 9.26827759243764 10.30199814
5.59585963981384 9.02325242804769 11.79700089
4.826667841843 3.33102017343664 26.63499833
13.5118627372723 4.64398771646046 40.79300309
12.7463088287601 4.54585343008882 38.95900345
13.2222512447614 4.9130140783762 40.69399643
12.4841146007057 4.82987499489498 38.94299698
12.2617596986737 5.17130422993845 38.96400071
9.07598891654844 3.76730072143786 29.72600174
9.47717714062563 4.07576712882575 31.07899857
8.24810287767811 3.65288466151361 27.68600083
12.1378939990582 6.63515545648394 41.20699692
11.7186937857102 6.81549717171935 40.57600022
7.65388468976593 4.21835464980154 27.38299942
4.50112109980182 2.29812575422121 17.29399872
3.44897248515905 2.00762697159847 14.48799897
3.92491490116039 2.37478761988586 16.11899949
7.2440897516037 4.90249969055067 27.59699631
7.59984872195369 5.68477901767143 29.72600174
1.58135989321198 1.64512459639835 9.79899979
7.47407534859764 6.63111828647498 30.99499894
7.47598302233813 7.14863024421693 31.89100266
7.15145666392559 7.41637003547047 31.62299729
2.05743540273009 4.09604170788174 14.9430008
2.69038380402493 4.56688220573988 17.12400055
6.32357062505526 7.30195397554621 29.6099968
6.67742192166475 7.56672134492503 30.79800034
2.36585744561239 4.83462199699343 16.83699799
5.25341002114174 7.50026331554677 27.62900162
3.03003845884467 6.35548161322589 20.79800034
4.75195801442445 7.63561942211091 26.71899796
2.97711160367227 6.84300316518699 21.52899933
4.19567147879425 7.7409851228942 25.68600083
3.05377346933691 7.41920936382842 22.57899857
3.50979622232701 7.75766617699716 24.20199967
3.66587055300306 4.28117478972118 42.77000046
4.33439928778346 4.16596016869625 41.10300065
9.33206084283104 6.68559789934314 27.63899613
5.4693764343683 6.19363989682275 48.6550026
4.15423503057042 4.69074790535544 42.40099717
7.18224563080711 8.8579502802083 16.11899949
6.81317730877923 8.81638073846769 15.11299897
8.03049497774461 8.60950904888769 18.44900132
5.16082129796922 3.37130314451505 27.54600144
13.8610113962889 4.65685342308242 40.65400315
13.1228747522332 4.5737143396012 38.9600029
13.6660737587134 5.0132778610163 40.88299942
12.645823223592 5.1854565072226 38.93300248
12.4035486585488 5.49818190714742 38.93799973
9.85631620542311 4.03379830653481 30.94900132
12.1612740935056 5.81090730707223 38.93400193
9.11068195992214 3.96436785528182 29.15299607
12.5170330638556 6.593186634193 41.05199814
11.6418100975176 6.43507153625967 38.89400101
12.1451697779754 6.81722738743747 40.6099968
8.1276976094988 4.26378390352874 27.58900071
11.4194551954857 6.77650077130313 38.96300126
4.84534529869764 2.25487036126807 17.01399994
7.73591466060732 4.45912082165457 26.99300004
3.89536814043547 2.03806102243525 14.55400086
4.34389329198035 2.39022646783221 16.16899872
7.66306814242367 4.91793853849702 27.62700272
2.92547131916206 1.79254784848378 12.05400086
7.4282911788257 5.21695530619361 27.5850029
1.47213448044209 1.19358265847315 7.8730011
1.94807689644343 1.56074330676053 9.50400162
7.15859934932606 5.514685503228 27.57500077
7.68187869279509 5.92554518952446 29.39799881
1.24228197696494 1.54872052574484 7.980999
1.67088746549858 1.87218213602315 9.45100022
7.5417755841325 6.31196003323919 29.74799729
1.64537787478262 2.37469889087467 10.20299912
1.92447497946797 2.580772019354 11.13800049
7.56551059462474 7.37568778384172 31.54899979
6.18692794782892 6.83541683473059 27.61899949
5.96457304579698 7.17684606977405 27.67699814
6.33834400541772 7.47031727427152 29.03100205
5.69488121629734 7.47457626680844 27.59099961
5.12617261910112 7.53752950024486 26.4600029
5.45260665125416 7.78730166673326 27.56299973
4.69947480430797 7.73157984770849 25.86700058
2.85737180307685 6.86656071765685 20.34999848
4.15068587012299 7.82323691626356 24.77799988
3.69657079087339 8.00229206083677 24.05599976
4.16878658840492 5.0548917672625 42.96699906
5.35442800037692 4.18956208567171 38.88299942
9.34235340812861 6.40627897212983 27.66399765
5.72136682613634 3.90940023285213 37.61099625
14.1057703736453 6.55383531773203 40.77299881
5.86572892733585 4.16644817825778 37.7100029
9.38006323788263 6.14195524780694 27.64400101
4.39988129803868 5.80460754727803 45.60300065
-2.03900558570199 5.20373468352691 27.62800217
8.44477073097173 8.37304623407718 19.50799942
8.48997816217096 8.09501387752607 19.56399918
8.50027072746852 7.81569495031276 19.52999878
6.85408138293594 3.53159210322244 32.30399704
14.4571372579416 4.60889539253642 40.99300004
13.60933155606 4.46577549749351 38.96699906
13.3745545924621 4.7647922651901 38.9090004
13.9252512003875 5.19064715437698 40.88499833
13.1123603644076 5.04881382999627 38.88499833
12.6777213031134 5.64813393605164 38.9050026
13.2284179110388 6.07398882523852 40.84599686
9.63462677097506 3.787885852033 29.14699936
12.4354467380702 5.96085933597646 38.92100144
12.9861433459957 6.38671422516333 40.84599686
12.6965318534848 6.65574058707908 40.67100144
7.38082115784122 3.08949980498853 23.06399918
7.88418083829901 3.47165565616634 24.85200119
12.0256517999079 6.64500437672558 39.15999985
7.86616884902827 3.96046377878964 25.60699845
4.99250236374951 2.24630801168863 16.47299958
7.72606574036568 4.34687862250437 25.95199967
8.20200815636701 4.71403927079175 27.61899949
4.30170264716144 2.20686796621648 14.90000153
7.6881340880837 4.80698291000901 26.62399674
3.18229744203973 1.84396631046602 11.80199814
7.73245422917107 5.31207280618493 27.58700181
1.81121239668913 1.28998672912666 7.93199921
7.49767726557309 5.61108957388152 27.58900071
7.25540270052991 5.92381497380633 27.61800004
7.6565909246071 6.23228138119422 29.00699997
1.346582929614 1.94414136409494 7.96699906
1.74777115369119 2.25260777148283 9.42599869
7.00563053404151 6.25024900595937 27.57999802
7.6111616708799 6.70609430092709 29.69399643
1.51791865021403 2.60774563875452 9.50899888
6.76335596899833 6.56297440588419 27.57000351
7.84482952183805 7.38598034913929 31.30099869
1.88117522200924 3.37631633364706 11.53499985
6.48616653805348 6.87441323514681 27.53100205
7.11911493934832 7.34525373300495 29.65400315
6.62516053407624 7.46690120734086 28.73900223
6.05645193688001 7.52985444077728 27.66699601
2.5423394488612 5.35856680804635 16.35699845
5.3930694847484 7.50540959819556 26.18099595
2.32748214827447 5.68628741086159 16.34999848
5.05612106476982 7.73073692210223 25.81900025
4.55466905805253 7.86609302866637 24.92699814
2.91690896958261 7.14845278619455 20.105999
3.85637174001925 7.84036161542245 23.31299973
3.40225666076966 8.01941675999566 22.59799958
6.26008501755172 3.90128152832862 36.41499711
6.78638114740108 3.85075035645823 35.15400315
4.27242207347008 6.03765429515788 44.32699967
7.21028399834186 3.92231030397969 34.35000229
13.4751732911469 6.20894565125232 38.97300339
9.39035580318019 5.86263632059363 27.605999
6.20068094456274 5.70314592298692 50.52599717
4.31292686707646 5.50772027584991 45.26600266
8.57289542312421 7.55265779665206 19.68700028
8.6530177202251 7.27591201076314 19.88299942
7.31760173737125 3.85634028416295 33.65999985
11.4588508764522 7.22546956790394 27.57799912
1.94315243632261 1.50462220718543 11.00799942
12.117530690991 6.99801274772881 29.32600022
14.9410209204441 4.57078628223206 41.25500107
14.447066515172 4.69243375656798 40.39599991
14.1469406348356 5.43655960887879 40.98599625
10.4397981829818 4.13920837182369 30.75600052
12.792092998532 5.96001641037019 38.94700242
13.3228699434463 6.35716746443842 40.74999619
9.34031264087133 3.80501055119188 27.75600052
13.0456805125014 6.66860629370104 40.70499802
8.0564038490109 3.35213767809889 24.18999863
12.3473831944681 6.64287488045712 39.15600205
5.3142337583097 2.24417851542017 16.38000107
8.30138464889526 5.05333900956675 27.60499955
2.69907924712115 1.29473373122511 9.07400132
3.42670150335138 1.8529723051014 11.65000153
7.67784152278613 5.08630183722232 26.29999924
1.18341027804307 0.679486767661862 4.74499894
1.63943303103317 1.0179435808306 6.33599854
