ply
format ascii 1.0
comment File exported by Rhinoceros Version 7.0
element vertex 1035
property float x
property float y
property float z
end_header
-3.96857115820395 1.7349952699384 27.37400151
-3.83474591867868 2.0866945274952 27.3909998
-3.69749344739116 1.63740076599225 27.32999897
2.71469394442117 0.245699875747501 8.11500073
-3.5344551372851 2.00019772634027 27.33099842
0.79103772683013 2.75753434113795 7.98799992
-2.3843740848587 2.05266701235399 16.97600079
-4.2022757228502 1.64621364760864 22.07700062
0.873291288718339 1.48505215499282 8.4989996
10.3716192653329 2.00117693572438 27.53899861
10.2377940258077 1.64947767816758 27.6030016
10.0636580129104 1.31589378840034 27.47200108
-3.40062989775983 2.35189698389707 27.34700108
-2.24010394857284 1.67289709480383 17.05799961
0.750237348968972 0.753011774592146 9.50700093
8.25522206256592 2.11647880364022 21.99400044
8.08663490106425 1.76828837858259 21.96099949
7.99312043491098 1.39847375323623 22.15799809
4.15103044817683 3.06451638458219 10.59400082
-4.54728371842398 1.49843467882361 27.51099873
-4.64014537854662 1.83087615800343 27.58200169
0.881614565777938 2.95908820799796 8.1069994
-2.29934609730651 2.26882741450439 17.06199932
0.873780893275127 0.51579837744672 9.58599949
6.10226772120445 1.80003107254897 16.95799923
4.69693950457998 2.41946240989323 12.67699909
3.06084435051473 3.11837288339408 7.78900051
6.00875325505118 1.43021644720261 17.10599995
-4.31357915377772 1.58721630115337 27.38499928
0.843588613580769 2.44320822974769 8.78200054
-2.08702093067059 1.79790945271271 17.03099919
0.96615294884098 1.152610675813 9.19999981
1.67738513645739 3.32825002731369 4.0159998
0.317916544600537 3.91495946157801 -0.0509996399999988
1.50879797495572 2.98005960225607 4.0159998
-3.92156912284892 1.43527569383853 27.46600056
-3.47668180215417 1.32013702739653 27.22900105
0.82286202160106 2.58576475015243 8.93399906
-2.04377253009313 1.9480548434095 17.01100064
-3.83246109750384 1.55269918145537 22.07899952
0.986879540820689 1.01005415540826 9.42800045
0.224402078447267 3.54514483623164 0.14599991
5.6841454484418 0.788752905749746 16.97399998
4.5536485774077 0.860724772351204 14.00500012
-4.3883254461108 1.95996855370519 27.4800005
-3.98603371996288 2.39694060109258 22.08400059
-1.94536201857487 1.60100682893929 17.05099964
5.03346102155268 2.41358715548231 10.68100071
4.33920179113842 0.545256250373528 13.82499981
3.42135648975554 0.497438207446397 11.52699948
-4.03809500215673 1.74201293493674 27.39799977
-3.69341340959828 1.53866385145869 27.36499882
-2.04899497847342 2.31378943096298 17.04099942
1.70398698291566 0.530323312000191 8.01500035
1.11564553350714 0.407106170709351 9.63799954
0.77569678477219 1.21397444418002 4.06400013
0.383686753843389 1.36591505149486 2.91600037
1.14746982827807 0.23533657972383 6.03200054
-3.30695223006509 1.40132977943424 27.4800005
-1.97947113452064 2.30677176596464 17.03600025
1.58109624464013 1.4697928136718 7.98300076
4.84072003630906 3.00894626988917 11.94299984
0.467735532349643 0.528691296855986 3.9819994
0.408982988172765 0.155367839010455 4.24499989
-3.34285656262889 1.67183628495333 27.24699879
-3.21458017449923 2.03814207780052 27.16399861
-4.42276096507188 2.31460543846745 27.45399952
-1.85037873881887 2.05495183352882 17.05000019
-3.6043053842532 1.65608733907552 21.99400044
4.40138156700991 3.10947840104078 11.7130003
2.40624308744184 0.529670505969562 6.53900051
1.8471147086141 0.417551067469942 8.03099919
3.89513047794813 3.03416090341399 10.92599964
-4.04331745053703 2.10774752249022 27.42300129
-3.69308700658296 1.88979190372178 27.34100056
-3.34285656262889 1.67183628495333 27.22599888
-1.86963651719585 2.28163873317674 17.07499981
-3.5943500920494 1.89387194151466 22.00299931
1.69909093755067 1.24718595181676 3.92400074
1.89999199838006 0.454353008342774 8.03200054
1.43960053408589 0.346313607636033 9.36900044
2.10823712715546 3.07406367296612 8.94099903
-2.96341304809405 1.4649783689761 27.19300175
10.024000045569 2.03626526071608 27.47499943
-1.65616893997252 1.54372309836514 17.09800053
0.978066659204302 0.505271879949208 10.6220007
0.347945622821053 0.316039727204755 -0.0109996799999994
9.87352825185693 1.72838560903046 27.42500019
9.72860530954043 1.40589942205444 27.40900135
-2.53517228158612 1.39365930840527 27.55400181
-3.86510139984688 2.3425944977239 27.27700138
-3.70793834415175 2.36886994109922 22.17300129
-1.63250472078735 1.56942733644675 17.07400036
1.85886521743595 1.09059410141534 8.02200032
7.96048013256795 2.18836906950476 22.04499913
7.81555719025146 1.86588288252874 22.01199818
-3.49120673670764 2.15034311703706 27.29399967
-1.71541108870618 2.13965341806571 17.01500035
-3.4637888827449 1.72618238832202 22.0179987
2.48539582058311 0.409309391147264 6.78399945
2.05421742686972 0.312367693231743 8.02200032
7.68173195072618 1.51418362497194 22.07700062
-3.11176322217279 1.94348520105983 27.24400044
-1.73058882929028 2.26760340318005 17.05300045
-3.48451547472461 1.86873890872675 22.00600148
0.885531402096976 1.18884141139212 10.658
0.577406948132955 1.82394009387727 4.03900051
4.75569204875686 2.79278586773876 13.23599911
3.95502543271243 3.1404866882396 10.84100056
-2.76153277821872 1.72552958229139 27.14600087
-2.40575348286904 1.49296742823255 27.04800129
-3.42902696076851 1.72267355582284 22.03799916
2.4646692286034 0.551865911552002 6.91899967
2.06825275686641 0.451415381137311 8.04300022
1.69550050431458 0.376669088804232 9.09999943
7.51314478922452 1.16599319991431 22.06100178
2.89960125702672 3.19083435455233 8.11900044
-2.00264574914902 1.31181375033693 27.06400013
-3.44126707414715 2.01888429942354 22.01899815
1.68032276373048 0.504619073918579 9.16299916
1.31311936257427 0.415266246295109 10.25400067
1.00434210257962 0.348108824254079 11.10599995
2.2254158124939 3.4695825363941 6.13399983
5.72657784144716 1.55702402172954 17.05799961
-3.39246982217407 2.15442315482994 22.03099919
0.860724772324387 1.43013484633042 11.02699948
-1.49639466008724 1.38713124796372 27.90099812
-1.06962270718205 1.23168180814972 28.04900074
-3.32294597822129 2.1474054898316 22.02399922
-1.30593849601845 1.32576747959669 17.11299992
1.01984624617904 0.571286891402822 11.34899998
1.4118562770402 3.41123799596945 4.11699963
-3.10588796776186 2.28000671803253 27.16399861
1.1807629365841 3.13958907986295 8.03999996
-1.29304557660918 1.73181284052218 17.05099964
0.868558444894831 0.881532965000202 11.75400067
-2.74309100741384 2.11696840792648 27.18000126
-2.42762248543617 1.9025216216572 27.08200169
-3.17133177392177 2.18828746849731 22.03099919
0.994223608834345 1.43070605162413 11.30700016
5.55244182854989 1.2234401319623 17.02600003
-2.9312623503078 1.64433683025367 22.03099919
0.991285981628883 1.26244529313778 11.74100018
1.23217141274732 3.09226064149261 4.00100041
2.79270426697503 0.392336433945119 7.47000027
2.42550086581881 0.302983606321648 8.47799969
5.72494582637059 -0.198616239585913 -0.10599994
-0.127297179109532 3.67897007575692 -0.0500001900000004
5.4075188862334 0.900953944986286 16.99299908
-2.05372782229693 1.71027024097037 27.03400135
-1.70904622973847 1.50692115749231 26.98500157
-2.97940679625025 2.21105407937346 22.02999974
0.976434644060098 1.74152333051522 11.63300038
-0.929106205673749 1.30177685739621 17.06899929
4.01051394666853 2.9944213353357 16.4460001
2.56079491894682 0.738813243121622 8.03399945
1.66922506093926 0.533832144499361 10.59299946
5.64873072043478 0.0900056337227352 0.13899994
4.60130341879335 1.26326130077752 14.53099919
-1.31148734741406 1.34037401488709 27.03400135
0.994876414864974 2.13296215615031 11.47300053
-0.969090576030436 1.67102027744886 17.04900074
2.57336143534077 0.793730551784015 8.0880003
1.68179157733321 0.588749453161754 10.6220007
5.83624925729811 -0.13961889313064 -0.053000449999999
-0.888795432301747 1.28366148960665 27.42699909
-0.453537000795481 1.2818662729886 27.9839983
-2.9516625392722 2.1380214029215 22.02599812
1.00564771464088 1.75262103330644 11.64600087
-0.899893135092967 1.31287456018743 17.09100056
2.35189698407315 0.408738185853555 8.06599903
2.56226373254955 0.822943622364797 8.12099934
1.64148080396121 0.606864820951316 10.72799969
1.39667853652374 0.547296269202335 11.41700077
5.68088141822102 0.269364095000305 0.0950002699999999
1.08724847043083 2.76977445451659 4.00100041
0.367203401130399 3.08124453943831 1.83600045
-3.12204491739191 1.35457254635761 27.13100148
-2.98267082647102 1.69166526862402 27.21199894
1.00042526626058 2.11835562085992 11.45200062
-0.992754795215608 1.64531603936725 17.0539999
1.0227838733845 0.739547649889171 12.2489996
4.64063498311941 0.191761776198684 2.85200024
4.66348319473248 0.835591739563301 15.18800068
-2.48425340997969 2.31558464758103 27.0350008
-2.00721539149869 2.3798044424166 27.83799839
-3.01269990462391 2.2986932911158 22.06599903
1.03600319580908 1.49672106307775 11.77500058
3.52792707679192 2.94480807579052 15.82300091
4.1875875868389 0.504374271707818 3.9460001
0.942325528114335 2.44728826754057 3.98499966
0.302902005557911 2.72252761688317 2.08199978
-2.11590759823606 2.13793980218458 27.06800175
-1.60965650917428 2.21325729981137 27.88699818
-1.76012830288638 1.90537764812574 26.95300007
-2.96129142846069 2.25136485274546 22.02599812
0.99046997405678 1.88057101842079 11.69399929
-0.909522024281456 1.42621801001139 17.04900074
1.0782723873406 0.593482296985262 12.29399967
4.71570767846781 0.170137575909952 2.79100037
4.34850427731159 0.0807847482864808 3.77399922
-1.38623363974714 1.71312626743891 26.97100163
-0.988674757422729 1.54657912483368 27.01899815
-2.89878524950624 2.17482334379433 22.02499867
-4.76401532586809 1.71696150288576 27.33799839
1.08626926138488 1.71639029772732 11.69399929
-0.813722736953353 1.26203728931792 17.07199955
4.0865658511305 1.03428957995477 4.00199986
2.64141646569082 0.702582507542499 8.10299969
1.72063353710249 0.486503706129018 10.71000004
5.78777840834035 0.0759703037260525 0.0590000200000009
4.55332217439238 0.509596720088114 15.22000027
0.445703328241043 2.25862732008983 2.95100022
-0.60368239149227 1.32511467356607 26.98600102
-0.206123509167858 1.15856753096084 27.01899815
0.777655202864076 3.32074275775856 8.02299977
1.082189223592 1.81512721226088 11.7659998
-0.78858970416545 1.3718719066427 17.0710001
4.21010939543665 0.797076182809344 3.94399929
2.79972193197337 0.461860277897903 8.00400067
3.41727645196267 0.596175121979963 12.25100041
0.582955799528566 1.80933355858688 3.75500012
3.08189734557738 0.335052703370972 11.71000004
0.330809464077435 1.32911311062202 28.13399983
-2.71159311565823 1.59407076467787 22.04499913
3.08711979389005 2.96120982769895 15.31499958
4.25303139299881 0.596093521243042 4.02200032
2.81343085895474 0.24977991354038 8.13799954
0.524203255351688 1.43601010074135 4.00100041
1.99171124791528 0.388909202182869 8.8890009
0.746483714191408 1.2028767413888 28.29800129
-2.88915636031775 2.06147989397038 27.03199864
5.29703146287798 0.223830873248007 6.33400059
1.07288673741883 2.27959871434793 11.48899937
-0.914744472661752 1.79195259756487 17.08100033
-2.65757341530486 1.36387503253078 22.05899906
2.65333017598651 3.04713542356018 14.98599911
4.33332653672749 0.208734733400829 4.0539999
0.395926867222026 1.06970430789416 4.06599903
1.33384595455398 0.27270972589037 7.33000088
0.600907965844286 0.178134449886604 5.55899906
1.04220485323532 2.18437063231354 11.6050005
-0.887000215683701 1.71891992111291 17.04300022
4.12279658670962 1.11491112669877 3.98899937
1.72765120210083 0.556027550081802 10.81199932
-2.63439880067647 2.35883304815849 27.3929987
-4.23295760703372 1.55098556557424 22.02800083
-3.80618565412853 1.39553612576024 22.17400074
-1.86261885219751 2.35116257712952 26.94899845
-1.47060882126871 2.19922196981469 27.03099919
-0.958808880811318 2.25993293215108 27.81699848
-2.78633940799131 1.96682301722969 22.03799916
-4.65156948435315 1.50896117632112 27.38399983
1.04856971220303 1.55163837174014 12.07499981
-0.699808081835688 1.13816734199645 17.01900006
4.17828510066573 0.968845773794865 4.03900051
2.76789763720244 0.633629868883423 8.07400036
5.93237494764152 0.0473284384389791 -0.0509996399999988
-1.10226300952508 2.02157712441824 27.09600163
-0.740934862779792 1.77440843506901 26.91500187
-0.348924831850991 1.62246782775418 27.0140009
1.06586907242049 2.21007487039515 11.75100041
-0.799361003941355 1.75221302948657 17.03200054
-2.54218994658446 1.32413546445249 22.04300022
0.845710233281761 0.237703001635584 5.91800022
1.04644809256967 0.765251887970782 12.71200085
5.58508213089292 0.433544815693776 0.748999599999999
4.41949693486711 0.157897462531315 4.11799908
0.0597317532646405 1.42670761456817 26.99900151
0.462839486984662 1.24555393667256 27.04800129
-2.76789763718643 2.35826184286478 22.1030016
-4.66234078412906 1.88930229916499 27.44099903
1.07631396918108 1.47860569528818 12.35299969
-0.549662691138899 1.09491894141898 17.00199986
4.42537218927803 0.494418979504014 4.0140009
3.69096538696561 0.315713324257073 6.05600071
0.872964885703024 1.13392410272973 27.32600117
9.70559389638589 2.08245128849901 27.4819994
1.42099556173954 1.27525661181013 28.34299946
1.81300559266834 1.12331600449529 28.42500019
5.17120309739699 0.995039616433264 8.12099934
1.11058628660068 2.44435064033511 11.68399906
-2.52668580298505 1.54731353160123 22.05000019
2.18330982250385 3.05243947267739 14.46099949
1.03420797919103 1.06146263157148 12.81700039
4.43793870567198 0.549336288166407 4.05199909
3.69798305196395 0.385237168209857 6.14300061
9.5203601806974 1.77808046931255 27.35099888
9.38098608977651 1.44098774704615 27.35099888
7.55965722002276 1.83552740136054 22.36399937
5.95277513653829 2.54553557765261 17.46000004
4.71978771619305 3.06329237325785 13.78600025
-4.6745808975077 2.18551304276569 27.44699955
1.08806447800293 2.15164872923358 11.9970007
-0.654764464640177 1.7235711641995 17.00800038
-2.42680647786407 1.2843958963742 22.0350008
4.25107297483929 1.48121691954596 3.99499989
1.1034054201285 0.703316914310048 12.94200039
4.52933155219189 0.132764429743412 4.10200024
7.33966158235788 1.53466541467326 22.13499928
5.64660910073379 2.29551086183484 16.96799946
3.89513047794813 3.03416090341399 11.73599911
7.18918978864577 1.22678576298763 22.05299855
-4.37021007832124 2.00027932707719 22.0140009
3.95241420858991 0.33146227013488 5.0539999
-0.693606424409449 1.82581691123224 17.03799916
-2.46564843763334 1.38664164340693 22.07399845
4.32173922937949 1.20720158152771 4.04200077
1.9321426961663 0.633711469620344 10.83199978
1.59415236559087 0.555456344788093 11.74299908
1.13930975269231 0.432810408790962 13.04600048
2.62705473261119 3.2042984792553 8.3399992
5.3970739894728 1.63242312009325 17.09899998
-3.66273152541476 1.63389193349308 22.03099919
-3.29438571367113 1.45624708809664 22.04800129
-2.94268645611434 1.32242184857137 22.18000126
4.41084725472456 1.32462506914454 8.10399914
-2.64288527927755 2.20517882496253 22.06800175
-4.56654149680096 1.72512157847152 27.49699879
-0.580018172307098 1.35081891164768 17.09200001
4.33283693217071 1.17798851094693 3.99599934
1.91957617977235 0.578794160957951 10.85999966
5.63763301764356 0.119218704303517 1.19200039
5.38728189881047 0.0742566878449278 1.93000031
4.71733969354438 1.9257778372254 15.0159998
2.39596139215509 2.9326495631488 8.06099987
1.12266319843785 3.4685217265436 4.23899937
5.2466021957607 1.32454346840762 17.00100041
4.61272752459989 1.58517628245983 15.11399937
-1.06717468453337 2.36919634418216 27.01699925
-0.693280021394134 2.17694496349533 27.01699925
-2.48082617821744 1.51459162852128 22.14199925
4.26102826704309 1.7190015219851 3.94500065
1.05493457117074 0.918906111166741 13.03999996
5.56435553891321 0.576101336098515 1.14999962
4.52117147660614 0.330238258810543 4.09400082
0.217384413448926 3.47562099227886 1.94299984
5.34909274507183 0.878758539403845 17.78799916
4.51366420705101 1.22996819240386 15.29399967
0.354636884736448 3.02632723077591 2.76299954
-0.180011267334012 2.3217863050749 28.00100041
-0.348598428835676 1.97359588001727 26.95200062
4.89294452004438 2.34349210623582 11.15400029
-2.45716195903226 1.54029586660289 22.07700062
4.33022570798056 1.36085580472367 4.0539999
1.57897462500677 0.683406329902441 11.83599949
1.1185831607126 0.575366929195701 13.14000035
4.93309209194254 0.653866856373977 16.98400021
4.56474628019892 0.831511701770422 15.81899929
0.0141985315123427 1.81055756991122 26.96799946
0.35333127267519 1.62181502172355 26.93499852
0.710579381627599 1.47338324690789 27.03400135
1.07892519337123 1.29573840151144 27.00100041
-2.70800268242214 2.4645876276904 22.1600008
-4.59689697796915 1.98102154870021 27.50000096
-0.570062880103294 1.58860351408681 16.98799992
4.31357915379373 1.40467541059484 4.08000088
1.13669852850216 0.615677702567703 13.05199909
4.27522679858125 0.537667380081479 15.42500019
0.519307209986706 2.15287274055792 4.1069994
1.69354208615506 1.26179248710715 8.06000042
0.350720048485042 1.80468231550029 4.09100056
2.75239349360302 0.41045180173468 11.68599987
1.44172215371925 1.13270009140539 27.05000019
2.40134704207685 1.24653314578613 28.47699833
-0.954402440003125 2.51232406988061 17.32000065
-2.59849446811267 2.08832654263941 22.00299931
-4.48738876365968 1.60476046364922 27.45700169
1.15285547813221 1.54111187424263 12.39199925
-0.496785401372946 1.13172088229181 17.07499981
3.00976227743445 0.524937662146054 8.09699917
0.40735097302856 1.39161928957647 4.69800091
1.73728009128932 0.442684100257845 9.07700062
0.463981897572078 0.978556263652642 5.28900051
2.76414400242487 1.08349483568008 28.54300022
-2.72970848344779 1.55375999130587 27.12299824
-2.57221902473735 1.93116348694428 27.10599995
1.13017046799298 2.56879179295029 11.73300076
-2.50155277019715 1.65714814892602 22.02599812
0.538728189905158 0.60580401110082 6.45900059
4.26217067763051 1.45200384896518 4.04200077
1.08529005233894 0.663006140938046 13.07899952
1.1489386418808 0.319466958967005 7.7489996
0.59013666606838 0.558475572730476 6.05899906
0.47997564572828 0.232480553255289 6.09200001
-4.2781644257707 2.28596357318038 21.91600132
-3.89170324623751 2.14862950115594 22.04900074
-3.51780858309827 1.9563781204691 22.03400135
4.75454963816945 3.05978354075868 12.82599926
-2.52227936217686 1.79970466933076 21.9839983
0.894017880698048 1.34249563458808 8.72199917
1.10813826395201 1.30683610430266 12.58700085
3.02494001801855 0.396987677031706 8.04399967
-3.17312699053981 1.75302903699104 22.00100041
-2.77001925681979 1.57187535909543 22.01699925
3.88958162655252 3.04876743870438 11.76100064
-2.39057574228494 1.3650174431182 22.03400135
3.4613408600446 3.12008649927521 11.43299961
-2.48637502961305 1.52919816381167 22.09499836
4.2262663450667 1.72251035448427 3.95500088
1.08414764175152 0.930003813957962 12.93500042
5.59356860949399 0.587199038889735 1.08500004
4.49195840602535 0.319140556019323 4.15300083
-1.95678612438141 1.27909184725698 22.36100102
9.2536889106928 2.12806611098823 27.30799961
7.30408365280938 2.15629997245543 22.35400105
1.54453910604569 1.0380432146647 4.05300045
7.26197766281933 1.73915690873873 22.73099995
5.37846901712645 2.56136612426734 17.03999996
-2.71355153381775 2.47919416298079 22.10400105
-4.60244582936476 1.99562808399061 27.46799946
1.13474011034264 1.50080110087062 12.42100048
-0.480138847186115 1.08790127642064 17.02900029
5.52551357914394 0.678347083131251 1.2670002
4.54630450939404 0.44007287613533 4.06400013
3.78268463650083 0.250269518097168 6.22899914
4.68763701840681 2.88393391198028 14.90700054
4.3706996828264 3.01425031900638 13.95699978
6.91550085364283 1.50724756071052 22.05899906
5.20433300422918 2.22778223450011 16.94200039
1.77400043135759 2.54594358133722 8.0710001
-1.52299650647787 1.19316625139576 22.65599919
-0.474753197331979 2.39367657093944 26.91999913
-2.71502034742048 2.39506378373761 22.20100117
-4.57470157238671 1.92259540753865 27.50800038
-0.547867474520854 1.53017737292525 17.00199986
4.33577455937617 1.34624926943327 4.06199932
1.64849846895955 0.6763886649041 11.76200009
1.1588939340846 0.557251561406139 13.17299938
5.36100645543515 0.231419743540057 2.11800003
4.64553102841676 2.46679084826358 15.2850008
3.3958970538847 3.02836724973998 11.47899914
6.78167561411756 1.15554830315372 22.09200001
5.0649589133083 1.8906895122337 16.94099903
4.55201656226349 2.09697622291722 15.44800091
2.25985133145498 3.11494565163183 8.50999928
-0.0882920177987877 2.25634249891499 27.0179987
-0.901525150237171 2.54912601075344 17.5350008
-2.45242911520876 2.14381505659551 22.0140009
-4.37053648133656 1.6491512748141 27.4839983
4.23654804028582 2.31142300918649 3.9630003
-0.368835416258598 1.14689862287591 17.08599949
3.11959689475924 0.499804629358151 8.15599919
1.71214705843378 3.32474119481452 6.93599987
4.92558482238742 1.55359678996729 16.95799923
0.570552484608455 3.42592613199676 3.91800022
4.78066188007092 1.23111060299127 16.97499943
0.285602645340452 2.06409111822816 26.96999836
0.840650986375307 2.27494747126134 28.21700001
-2.27600828113665 1.94340360032291 22.01500035
1.11744075012518 0.842364602215616 13.63499928
1.79064698554442 2.50212397546604 8.00199986
4.99853589810245 0.745586105909202 18.02299977
4.64128778915004 0.894017880724865 16.95799923
4.46715177625277 0.560433990957628 16.8909998
0.399843703473431 2.29134922316978 4.70500088
0.635833089294519 1.84613549945971 26.90499974
1.00417890103815 1.66849065406327 26.92099858
-4.26559790937675 2.34088088184277 27.41600132
5.66162363977641 3.48794270652968 0.0670003900000005
-2.06923196589634 1.48709217382162 22.14399815
1.19398225907631 0.904870781170059 13.78900051
4.12475500486914 0.229787728395853 6.40700054
3.57851954545067 0.523713650821717 14.67800045
1.34886049359661 1.46514157058521 8.05099964
2.57450384592819 0.526732878764099 12.10200024
2.0028089507065 0.359696131602087 10.82199955
0.648889210245258 0.931799030576007 6.8210001
1.35049250874081 0.228890120019197 9.34699917
0.877860931068005 0.417061462913154 7.96799946
1.43095085394334 1.51304121424926 27.00299931
-2.01047942171946 1.86041563166715 22.0350008
1.13441370732733 1.14967304860753 14.08100033
0.0967784964158658 0.889203436029172 17.06499958
5.62017045588463 0.781164035457696 2.37100029
4.06371763951743 0.390459616590153 6.80799961
1.79929666568697 1.33539636885282 27.03600025
2.55214523880427 1.90554084973485 29.33200169
2.378009225907 1.57195695996761 28.33099842
2.19130669661577 1.18345576153798 27.14999867
2.97483715391659 1.84882832445441 29.70900059
3.28328801089592 1.56485769423235 29.39700032
0.193393791316072 0.106896990052695 0.13399983
3.5137285453214 1.13425050581267 28.61000157
-2.44394263660769 2.29746927979147 27.09000111
-3.98081127158259 2.0312060135391 27.36900044
0.0538564988537159 1.09018609759547 17.28999996
5.44750325659008 0.531710524933633 3.21200085
4.44462996765501 0.267732079856101 6.04099942
8.76408437581784 2.00892900749027 27.21299839
8.58439951152496 1.68995165301342 27.11599827
0.778634411977652 1.38223520266637 4.02100087
-3.56889065624618 2.35483461110253 22.02800083
-3.16578292252616 2.17368093320692 22.02900029
-2.78633940799131 1.96682301722969 22.02900029
-3.86983424367038 1.73907530773128 27.36800099
0.133335635010303 1.32095303503627 17.01900006
-0.140679703007953 1.25028678049607 17.74100018
5.50103335238667 1.27076857033265 2.67000008
5.01142881751172 1.15163146683468 4.09599972
3.61213905683965 0.787202491342462 8.07400036
2.48686463418584 0.493439770390439 11.27200032
7.13321167013288 2.34210489343764 22.71999836
8.47978734258047 1.34935009824784 27.24599934
1.61602136809036 3.1377938632449 9.31599903
5.35774242514675 2.70392264467208 17.84800053
6.57783692608271 1.78012048814136 21.947999
4.0090451330658 2.91029095609252 14.158
3.36962161050938 3.18553030543511 12.23899937
6.47322475713823 1.43951893337578 22.0140009
-2.38323167427129 1.78566933933408 22.02999974
-2.01488586252766 1.60802449393763 22.07800007
-1.59366276101808 1.46718158941402 22.22599888
1.73695368820637 3.08344775987622 14.00199986
-3.95012938739907 2.1264340955735 27.40699864
5.62506650118197 3.05619310752259 1.23099995
0.0571205290744925 1.60957490834491 17.08299923
5.00881759332157 1.33449876061143 4.02100087
2.39106534685774 0.657620491083909 11.53999996
1.96543580453996 0.546072257877998 12.70500088
4.50909456470134 2.29795888448352 16.10900021
6.33939951761295 1.08781967581898 22.06400013
1.66188099285798 3.10507196016495 8.02299977
4.48330872588281 1.48586816263255 16.96200085
4.38424540833393 1.13066007257658 17.06099987
0.512942351018994 2.78560500113132 5.48099995
4.32549286415705 0.757336614731051 17.3399992
5.20612822084723 2.66304066600637 17.03699971
-1.26709653624918 1.22352173256396 22.02900029
5.71972337792266 3.15901005984903 1.03800011
0.0933512646536158 1.69019645508892 17.07800007
-1.64392882659388 1.24751235476444 21.98099995
5.64970992948072 1.14338979051201 2.62100029
3.48680029591545 0.589157456981622 8.72300053
3.89284565684093 0.576264537572356 16.40499974
3.53004869649291 0.73930284767841 15.33899975
3.26974228545603 0.456556228780687 14.96000004
0.838529366741947 1.48856098749199 7.67800045
-3.9568206493821 2.4080383038838 27.50899983
5.66717249117202 3.47333617123929 1.15400029
4.66429920223695 3.20935772616176 3.9989996
-1.65616893997252 1.54372309836514 22.03099919
1.19251344547358 0.820740401926884 14.90700054
2.25462888314232 0.488788527303851 12.38600064
5.44048559159174 0.462186680980849 3.83700085
4.74084071125571 0.279972193234738 5.84599972
0.61298487768145 1.20230553609509 7.41599942
1.40630742571223 0.433952819378379 10.28699971
0.788752905722929 0.299637975296319 8.81000042
-0.77896081497696 1.25852845681874 22.71799946
0.298495564749718 2.47013647915364 27.01500035
-0.363286564862988 1.13229208758552 22.91500187
0.71416981486369 2.34390010992042 27.19500065
1.18973901974196 2.32398952551281 27.75299931
-3.80259522089243 2.26605298877277 27.40699864
4.76417852735793 2.94644009093472 4.01999951
0.204654695581133 1.74919380154419 17.05700016
-1.52707654427075 1.29190316592933 22.0350008
5.39560517587007 1.54829274085007 3.34800053
2.1129699710466 0.685691151077275 12.67199993
1.68734042872882 0.574142917871363 13.92699909
1.32013702757261 0.484790090247893 14.95099926
1.65975937322461 2.3186854763956 28.27800083
1.8051719200979 1.67191788582552 26.91700077
2.36022026113275 1.8827742388587 28.09800053
2.72856607287638 1.70512939346226 28.08099842
0.446519335813146 1.64050159480682 4.28200054
8.57656583895452 2.23855353434364 27.45800114
2.55997891137472 1.35693896840463 26.99900151
3.28361441391123 1.91598574649544 29.31200123
2.93387357451395 1.16468758771779 26.9819994
1.26987096192917 3.25701256747978 13.27900029
-3.64575856821262 1.941200379885 27.32700062
5.42547105248148 2.26164654816747 2.91499996
0.463981897572078 0.978556263652642 17.0350008
0.897934716949454 2.5641405498637 7.07000065
5.42498144799233 0.239008613832107 4.31000042
8.12547686083352 1.66604263154986 26.91800022
8.01531584049342 1.34004761207467 27.01699925
6.29859913968416 2.07518882115464 21.88200093
4.49571204073529 2.86116730110413 16.41999913
3.53070150252354 1.44155895220459 28.3929987
3.33845012183671 1.06766428906535 27.24499989
3.91014501705839 1.23470103622736 28.32800007
-3.53184391309495 1.81733043256353 27.28299809
5.63730661456061 2.75998236392189 2.1079998
1.20018391650255 1.59252035040585 14.78600025
0.436564043609342 1.40271699236769 16.99999905
2.64402768988097 0.519715213765758 11.69500065
6.22874889271606 1.73107843388989 22.04599858
4.43695949655841 2.4878438432586 16.68299961
2.76055356912115 3.20486968454901 11.69699955
6.05461287981879 1.39749454412266 22.01300144
4.41296887435792 2.1110115529139 17.00999928
5.9500007108743 1.05689298935708 22.06300068
4.3077038993828 1.06815389362214 28.39399815
-2.98201802044039 2.3939213731502 21.93700123
-3.62878561101047 2.24850882627692 27.36299992
0.378464305463093 1.73164963904834 17.06300068
-1.35326693438879 1.27435900343347 22.02499867
5.35937444029095 1.46767119410607 3.92699909
3.90165853845732 1.0810468130314 8.08500004
0.67891828833051 3.31666271996569 6.24999905
4.34132341077178 1.33164273414288 17.7489996
0.631263446944852 2.91412619153937 6.59500027
4.40350318671091 0.903973172928668 18.3550005
3.96563353101449 1.08863568332345 17.04300022
0.693443222883981 2.48645663032516 7.21799946
-2.5955568409072 2.25658730112576 22.0690012
5.63241056919563 3.47684500373846 1.84799958
0.349577637897626 2.07167998852021 16.98499966
-1.46979281369661 1.58109624453168 22.17599964
5.40376525145583 1.35081891178294 4.02100087
2.57597265953092 0.610863258007274 12.05799961
3.9764048307904 0.708294560479582 17.43699932
0.825146842775893 2.0517694041126 8.00500012
3.15729644394109 0.66455655534533 15.41899967
0.691321603250621 1.7000701465558 8.0710001
5.13578836938997 0.296292344406254 7.13799954
-2.25642409974436 2.06784475293809 21.98700047
-1.89362713939634 1.90480644283204 22.03699971
-3.51633976949554 2.04050849971227 27.29499913
1.12249999696401 1.79701184447132 15.05099964
0.422855116627974 1.61479735672521 17.06099987
5.37047214308217 1.43845812352529 4.01500035
3.94751816322493 1.04832490995145 8.04900074
2.48425340999569 0.676307064167179 12.25599957
0.782714449770531 1.28349828813281 8.72700024
1.95140047454328 0.40702456997243 12.66299916
1.66922506093926 0.533832144499361 11.76100064
0.839345374314049 0.870435262208981 9.33400059
0.890427447461957 0.471978771575547 9.87600041
-1.55449439823349 1.71606389464437 22.00299931
-1.18614858648986 1.53841904924793 22.00399876
-0.817802774746232 1.36077420385148 22.03699971
-0.449456963002602 1.18312935845504 22.07000065
-3.54555284007632 2.02941079692105 27.30799961
5.56370273281495 2.8657369434538 2.40299988
4.98645898619765 2.71330673158218 4.02699948
1.16689080812889 1.68015956214819 14.95900059
0.432484005816463 1.50145390690125 17.05000019
2.6203634706958 0.494010975684147 11.94999981
-0.0504292670754601 1.10071259509299 22.34899998
1.04661129404351 2.43676177004306 26.97300053
0.384829164430805 1.09891737847494 22.85599995
1.38019518381075 2.26262575714579 26.95599842
0.778308008962337 1.03110715040328 23.18499852
1.92414582205438 2.50269518075975 28.18600178
1.18288455628509 0.934083851750841 23.39799977
0.406208562441144 1.65861696259638 17.0350008
-1.31997382601513 1.18671979169113 21.96299839
3.79818878010025 0.473447585245911 8.82700062
2.32872236937714 2.40567188210731 28.43299961
2.45047069706524 1.73320005345562 26.94099903
2.10774752266631 1.05142573863076 24.82600117
2.83138302520282 1.61047251672157 27.08900166
5.47263628931035 3.63343685413988 2.03899956
3.37925049969786 3.07218685561116 8.07499981
1.19822549834303 2.47764374870877 14.30700016
0.288540272545914 2.23235187671451 16.89899922
-1.53083017904832 1.74176813272598 22.08200169
5.39886920609085 2.06768155159951 3.41800022
1.24131069744665 0.956279257333281 15.23599911
0.664066950829358 0.80384904546166 16.95699978
4.82439988520518 0.412002216141964 6.06000042
4.42798341346818 0.311551685727273 7.22399998
3.53690315994978 2.12920852144038 29.20399952
5.04472192588538 1.06399225509234 9.02500058
7.94089595117566 2.06392791688958 26.97599888
7.80707071165039 1.71222865933278 27.00800038
7.67324547212511 1.36052940177598 27.05799961
4.42471938317977 2.7840545868593 17.2149992
3.17606461776128 1.40712343324351 27.02399922
3.71299759100658 1.5776690129047 28.02299977
4.76744255757871 3.46582890168416 4.10200024
3.40291471888304 3.09789109369277 8.04600048
1.25110278810898 2.5144456895816 14.1789999
0.312204491731086 2.25805611479612 16.86999989
-1.53637903044393 1.75637466801637 22.20000172
5.33342539993094 1.97596230206429 3.72499943
1.29826802500549 0.894344283672547 15.21399975
5.00783838427562 0.281114603822154 5.79300022
4.4062776123749 2.39261576122421 17.62600041
3.45546560563368 2.78356498230251 14.8210001
6.0350286984265 1.27305339150748 22.98899937
5.71254251145048 1.41797633382397 22.02200032
4.43369546633763 1.96845503250916 18.13399983
1.51320441576392 3.23245073998559 9.35999966
5.57871727192521 1.06627707626717 22.03799916
4.34018100018436 1.5986404071628 18.31499958
3.56252579729447 1.26978936121907 27.08900166
0.409146189646606 1.82687772108273 16.9460001
-1.37546233997123 1.33278514459504 22.07999897
5.47443150599603 1.07680357376468 4.03900051
3.77746218812054 0.616004105650649 8.87099934
3.76848610496268 1.43160366000079 17.05199909
0.743709288459786 2.70612586497473 7.9989996
4.19901169264543 0.826289253390126 18.77299977
3.64575856822862 1.05069133186321 17.11699963
0.776675993818133 2.26735860096929 8.57199955
3.48272025812257 0.687894371515187 17.15100003
3.90165853845732 1.0810468130314 27.02299977
4.39828073833061 1.26970776048215 28.1050005
-3.53298632368237 2.08432810558345 27.29499913
1.15171306754479 1.80810954726254 15.01800061
0.452068187208756 1.62589505951643 17.01800061
5.37602099447778 1.4238515882349 4.07000065
3.97673123380571 1.05942261274267 8.08000088
2.52456418336769 0.658191696377618 12.22300053
2.74978226941288 0.593319095511421 15.41199971
1.77497964047117 0.607436026245024 12.85299969
0.979861875822348 0.940530311455474 10.47399998
1.12266319850548 0.476630014662135 11.34400082
4.79730843425775 1.1872909971201 28.35199833
-2.34781694626427 2.48441661136109 22.02800083
-1.97947113452064 2.30677176596464 22.07899952
-1.52756614882754 2.26115694347542 22.50399876
0.382870746271286 1.98404077677786 16.94200039
-1.46571277590373 1.48235932999812 22.27299977
5.34566551330958 1.67975155846359 3.94399929
1.80011267325907 0.71727064356981 14.11399937
1.34527006036051 0.594624707572679 15.40899945
-1.22058410545094 1.89305593401019 21.96299839
-0.852238293707309 1.71541108861374 21.99599934
-0.449130559987288 1.53425741071813 22.02900029
-0.0807847482436586 1.35661256532168 22.04599858
0.298658766291191 1.14975464934445 21.98099995
1.45004543077885 2.60673614441053 27.01500035
0.66145572663921 0.9867163392384 22.04599858
-3.50524206670432 2.01129542913149 27.29800129
5.54787218620022 2.29143082404196 3.02299977
5.18621763643962 2.1874714611281 4.06499958
1.27901024662851 1.12103118332046 15.19399929
0.643340358849648 0.946405565866398 17.03099919
1.81839124252248 2.42909129901409 27.01500035
1.20393755128011 1.14265538360919 23.02999974
8.06068586070425 2.27657948654081 27.80999852
7.64468520757496 2.05168780351094 27.02399922
7.49421341386286 1.74380815182532 26.94300175
7.38960124491837 1.40320659705974 27.09000111
2.25218086042601 2.34316570315287 27.30999852
3.99974264689263 3.37476245817957 6.36399937
3.42804775167094 3.20772571101755 8.0539999
1.30544889147767 2.63537800969761 14.13799954
0.308124453938207 2.35679302932968 16.95099926
-1.54045906823681 1.85511158254994 22.28099919
-3.26109260529747 1.36860787635429 27.15400029
5.32526532434519 2.17343613113142 3.70699978
1.29565680081534 1.07721157744929 15.26299954
0.694748835012871 0.899077127496055 16.97700024
4.24862495219061 0.343702383513518 7.90700054
5.67843339550472 2.12374127084932 21.97200108
5.53351045318822 1.80125508387331 21.98899937
4.33528495481938 2.31550304697937 18.36299992
3.85155567435536 2.53288746045411 16.88799954
1.61406294999848 1.03102554966636 23.29300022
2.75843194948779 2.41848320077966 28.11399937
2.58429593659052 2.08489931101242 27.06499958
3.42396771387806 3.30646262555112 8.07000065
1.27215578310401 2.72301722143995 14.21200085
0.304044416145328 2.45552994386325 17.00899983
-3.26517264309035 1.46734479088786 27.25199986
5.27793688597484 2.1220276549682 4.00299931
1.31230335500217 1.03339197157812 15.39400006
0.735059608384873 0.880961759706493 17.0350008
5.00375834648275 0.37985151835572 5.97199917
4.5197026630034 0.246107879567368 7.36699963
5.42889828424373 1.46065352910773 22.03799916
4.27098355924689 1.95678612442423 18.57599926
1.5172844535568 3.13371382545202 10.29399967
2.04785256790201 0.94509995380514 23.5710001
3.18667271599571 2.34716414020883 28.45800114
2.96928830252098 1.8634348597448 26.98299885
4.00121146049536 3.45889283742274 6.50999928
3.45872963585445 3.30295379305195 8.08400059
1.33613077566118 2.730606091732 14.12699986
0.33880633812172 2.45202111136408 16.99000073
-1.41104026951973 1.95441970237721 22.00899983
-3.25962379169474 1.45273825559747 27.27399922
5.37340977028763 1.60671888201164 4.19800091
4.07285692414913 1.24636994431229 7.97099972
1.86261885221352 0.640729134618685 14.22799969
5.49662691157847 1.01837743260312 22.67599964
4.29105734519597 1.11197349949331 19.54399967
3.41531803380315 1.48129852028288 16.93699932
0.817313170205449 2.60037128544282 9.12900067
4.1572321056707 0.760274241936513 19.59399891
3.31625471625427 1.12609043022691 17.06799984
3.56056737913495 2.15491275952199 28.44300175
1.4422117582084 3.15533802574076 13.63200093
0.205633904627076 2.80257795833346 17.1409998
-3.29960816205143 1.82198167565012 27.20599842
1.29190316603777 1.52707654424594 15.23300076
0.650684426863304 1.36705746208227 17.06099987
2.88034347871737 0.42562954231878 11.7640009
3.4590560389374 0.662190133433576 17.90400029
2.52456418336769 0.658191696377618 15.57499981
1.00940134941844 1.30275606650978 10.99800015
1.94177158535479 0.520368019796387 14.19699955
1.58452347640238 0.66879979461205 13.14700032
3.57819314236773 3.16447731044009 7.91299916
1.36795507043211 2.55883650074648 14.30899906
0.434605625449823 2.28784039067061 16.9989996
-1.32078983358724 1.80484551697413 22.04300022
5.39740039248812 1.98355117235634 3.99299908
1.31491457919232 0.850524677801374 15.66400051
1.10634304733396 0.871577672796398 11.73700047
5.1524349235768 0.252472738535081 5.90499974
0.749094938381555 1.02000944761206 10.65400029
1.00173087838947 0.530976118030819 11.78600025
3.73519299658902 1.51924287174313 27.03299809
-1.68734042871282 2.41774879387684 22.59100056
-3.32033475403114 1.96453819605486 27.24099827
5.37667380050841 2.12610769276108 4.05799961
0.868558444894831 0.881532965000202 16.98300076
4.22349191940271 0.233867766188732 5.99000073
4.10353880833264 1.34159802634669 27.03299809
4.44267154949549 1.15285547815902 26.96799946
4.88902768379298 1.12184719096019 27.44199848
5.36051685087837 1.20067352108615 28.21400166
5.02056810214342 2.00754179455683 11.35200024
3.806348855686 0.275973756178779 5.56400013
-1.58305466278364 2.40722229637933 22.0140009
-1.19104463185484 2.2552816890645 22.09600163
5.53367365466207 3.47276496594558 2.70499993
0.547051466964757 2.07984006410597 17.03200054
-1.2083439920723 1.59684519040949 22.08400059
5.44734005504861 1.85209235474282 4.13300038
1.39406731233359 0.730163562979076 15.73799992
-0.708457761978233 2.30489494860967 22.83400059
5.19829454834441 0.219750835455128 6.05199909
-0.461370673365925 1.83046815431882 21.96500111
-0.0582629396459036 1.64931447642321 21.9819994
0.315631723493336 1.45706309573637 21.99900151
0.736854825002919 1.31622019121276 22.11299992
1.11629833953777 1.10936227523553 22.06400013
2.28433155821225 2.52252416443044 26.95200062
1.47207763488745 0.876800121176694 21.94899845
-3.2131113608965 2.1222724570437 27.15499974
1.36991348859163 1.67371310244356 15.3380003
0.763456671393552 1.51018518778072 17.04300022
5.37569459146247 1.07272353597181 5.11099911
3.07226845638889 0.448396153194929 11.67199993
7.72971319512716 2.26784820566135 27.84100056
7.34292561257865 2.0540542254227 27.05400181
7.15769189689016 1.74968340623624 26.93999958
5.5215967428249 2.44859387973709 22.03600025
2.67634158914105 2.37058355711561 27.05000019
2.03822367871352 1.0584434036291 23.06499958
1.37431992939982 1.92610424017309 15.43699932
0.83183810475892 1.77016519580229 16.97799969
-0.95277042485892 1.2760726193146 22.07199955
4.16865621147724 1.08218922361882 8.02299977
5.45190969739828 0.784101662663158 5.43299961
5.11946821821846 0.691240002540517 6.39199925
4.15135685125978 0.423752724963813 9.1409998
7.08784164992206 1.40557301897149 27.16899967
5.33636302713641 2.14422306055064 21.90400029
3.1408130912281 2.37988604328878 27.65599919
2.81620528461873 1.73842250183592 25.70499897
2.46646444522145 0.987124343058268 23.3929987
-1.38411202011378 2.49951275120826 22.67699909
-2.92391828229415 2.06498872646955 27.1069994
4.18105952632971 2.4574883620904 7.98400021
1.01380779022664 1.55514720423931 17.01299954
3.22535147429114 0.573408511103814 11.93800068
3.88517518574433 2.79637630097486 17.47600079
3.29716013935113 3.02428721194711 15.76999951
4.23507922668308 2.22729262994332 19.00100041
2.12080364354941 3.12898098162852 12.66999913
5.12713868924743 1.46301995101948 22.05199909
3.62339996110471 2.42949930283396 28.37899876
3.41858206402392 2.00068733103232 27.06699848
-3.04599301299757 2.38633250285815 27.54100132
4.16180174795274 2.68417526173832 8.1239996
-0.731632376606617 1.30993693298197 22.23700047
3.24493565568344 0.697849663718991 12.05300045
3.41597083983378 2.18355462480907 16.96700001
1.73401606100091 2.91518700138987 11.88200093
1.0250686944917 3.1974440157308 9.79900074
5.27548886332617 0.984513118935752 22.96999836
-2.85553684892878 2.32496873449112 27.24599934
1.34298523918568 1.12862005361251 17.02200032
0.946568767448687 1.02816952319782 18.17800045
0.805073056826812 2.89658202904352 9.55300045
4.09913236752445 1.08920688861716 19.86999989
1.10911747299795 2.36022026109193 10.91400051
2.87658984393981 0.875494509115436 23.59000111
3.99174577284834 2.25185445743751 28.37899876
4.65581272363588 3.0557035029658 13.48400021
4.02748690387068 3.30172978172761 8.27200032
1.28031585868977 2.52554339237282 16.19299984
-0.73799723557433 1.94266919355536 21.99099827
-2.48784384321578 1.4450677845685 27.03400135
1.38590723674783 0.927637392046208 17.07300091
0.995039616406447 0.812580326341126 18.22000027
4.98009412729757 0.354147280274109 7.97899914
3.91389865183596 0.784836069430708 19.72200108
3.00339741846674 1.15766992271945 17.01500035
1.21160802230908 1.91443533208816 11.63600064
3.22682028789388 0.657538890346989 18.14799977
2.86402332754586 0.820577200453043 17.06599903
1.02637430662059 1.6100645129017 11.52100087
3.76881250797799 1.78273171226388 26.95200062
4.14270717111723 1.59048033157704 26.91999913
-2.80004833497268 2.17890338158721 27.15300083
5.28266972979835 2.72554684496081 5.33299923
4.34932028481606 2.45455073488494 8.00700093
1.21128161929377 1.56330727982507 17.00999928
-0.509351917766897 1.07680357362942 21.93100071
5.2170627221646 0.962317713353312 6.84200001
3.7356826011458 0.549989094197036 11.09100056
3.52564225568472 0.486911709948885 11.68999958
2.35630342488134 0.66112932358308 15.90100003
1.45657349128803 0.653622054027951 13.65300083
0.925189369438349 0.468469939076377 12.50500012
5.41535255873621 3.34424377553753 4.37499905
-0.732774787194034 1.57693460600188 22.04000187
5.17528313518987 0.896302701899698 6.86099911
3.72311608475185 0.495071785534643 11.01900006
3.87097665427381 0.98581873099701 25.09899998
4.57502797541803 1.42042435647265 26.98600102
4.94337378716166 1.2427795110762 27.0179987
5.35904803727564 1.11654314184298 27.16600132
5.8542014235462 1.22107371005055 28.06800175
-2.84590795974029 2.21162528466717 27.14700032
4.2354056296984 2.57842068220641 8.05700016
-0.652479643465344 1.18957581815967 22.08799839
3.29079528045105 0.665127760639038 12.03600025
4.23165199492083 3.02828564900306 12.95900059
3.82005778259974 3.05578510370272 12.54900074
3.38479935109348 3.05758032032077 12.05700016
2.99132050656194 3.12539054839243 11.77800083
2.57417744284524 3.16749653838247 11.40100003
5.37797941256967 3.53061990181344 4.31700039
-0.770147933360574 1.76331073227779 21.99900151
2.03936608930094 0.791445730609182 15.283
1.49688426466003 0.635506686238389 16.80000019
0.692627215379511 0.112690643726699 1.54599953
-1.11711434709386 2.50065516179568 21.97699833
-2.67797360426925 1.85755960519861 27.1030016
4.64047178157794 1.51214360600787 7.9630003
2.26050413755324 0.825310044276551 14.75299931
1.50798196745125 0.606293615657607 16.95900059
-0.741750870351894 2.39253416035202 22.15799809
-0.264712851870895 2.45675395518759 22.89600087
4.13177266979985 3.2912032842301 8.10599995
1.30251126427221 2.46711725121126 16.25700093
-0.686588759411107 1.89534075518502 21.97300053
1.05493457117074 0.918906111166741 4.02200032
-2.46564843763334 1.38664164340693 27.09999943
1.45396226709788 0.836489347804692 17.12900067
5.03003378985806 0.222688462660591 8.08400059
7.04818368258069 2.12594449128724 27.00100041
6.89069422387024 1.74854099564883 27.06699848
5.48536600724578 2.36797233299309 22.80199909
6.78608205492575 1.40793944088325 27.14899922
4.90632704401044 1.7802836896152 22.00000096
1.87045252471633 3.08401896516993 12.83000088
0.31595812650865 1.80819114799946 21.99400044
0.689852789647889 1.61593976731263 21.93000126
1.05264974999591 1.45290145720657 21.99499989
-1.01282858116469 2.49012866429817 22.59899998
4.55495418946895 2.26523698140357 8.01999951
1.42246437534227 1.3593869910533 17.02399922
5.05402441205855 0.599520753005292 8.03600025
4.54075565799843 0.454679411425721 9.47199917
4.14433918626143 0.35422888101103 10.57899952
4.76695295308956 1.4431909673488 21.98299885
5.01958889309747 0.954157637767553 23.11299992
4.18970920647226 1.29076075547717 20.68600178
2.95117293473141 1.8231240863728 16.9800005
4.44789399787579 0.787120890605541 21.88300038
4.12540781089977 0.932043832922034 20.89999867
2.85210961718253 1.46791599631683 17.06099987
-2.61922106009238 2.23088306304414 27.22300053
1.49019300267701 0.917110894548696 17.36099911
1.06586907242049 2.21007487039515 11.77999974
3.6801940871897 0.696054447100945 20.06300068
3.23677558009768 0.895323492786122 18.65199948
1.42099556173954 1.27525661181013 22.02900029
1.98306156777273 1.5556368087961 23.40599919
1.78379252208756 1.11221830170407 22.04499913
-2.77344648858204 2.37286837815517 27.53600025
5.27042961641972 3.02175758856151 5.72300053
1.36175341300587 1.87118693151069 16.95099926
-0.539707398935096 1.33270354385812 22.45200062
5.18262720320353 1.31695459811557 7.33100033
2.68352245568087 1.1197255712592 17.02800083
0.966805754871609 1.85486678033918 11.84500027
2.98756687185201 0.583363803307618 18.3569994
2.51493529417921 0.771535146201574 17.01100064
2.11003234384114 0.517430392590925 16.20900059
1.82785693023712 0.644237967117856 15.33899975
2.90596611599443 2.55810209397893 26.96400166
2.6286867477554 1.96804702868929 25.14399815
2.1229252632504 0.923475753516408 21.9460001
-0.85713433907229 2.43227372843031 22.43499852
-2.44981789101861 1.96094776281877 27.02800083
4.67588650958496 2.21089087803488 8.00400067
1.51418362487749 1.2939431848934 17.04200077
5.116530591013 0.522979244054167 8.11200047
4.63247490753365 0.389235605265815 9.50599957
1.1884334076807 0.91947731646045 13.43599987
1.18663819106265 0.484218884954184 13.91100025
1.06015701955104 0.55317152361326 13.51800061
3.28687844413201 2.43537455724488 27.11200047
3.10017591484079 2.04687335881525 25.93200016
3.66779077226959 2.31264702051083 27.27599812
2.13337015994336 3.18389829029091 10.89300061
-2.31664545752397 1.61039091584938 26.99799824
5.16451183541397 1.27664382474357 7.3909998
3.04778822963162 1.04081764039632 23.40599919
4.16294415854015 2.4171775887184 28.12899876
3.81320331914287 1.66587942994075 25.81699848
4.5675207058629 2.32015429006596 28.3909998
4.34458744099256 1.85103154489232 26.93200016
3.97673123380571 1.05942261274267 24.53799916
4.71293325273618 1.67338669949588 26.93200016
5.07018136168859 1.52495492468022 27.03199864
5.43297832203661 1.36191661457416 27.03099919
5.79022643098902 1.2134848397585 27.04800129
0.0651174031864095 -0.259408802794495 -0.0609998699999998
-2.3691963442746 1.92471702723964 26.87299824
4.61892918202613 2.27282585169562 8.10299969
1.49198821929505 1.35236932605496 17.06799984
5.10837051542724 0.720453073121299 7.9970007
4.57143754218194 0.549907493460116 9.54699993
4.17502107044495 0.449456963045425 10.71200085
6.27428211446836 1.34722847854685 27.96600056
6.66074329400155 1.20989440652241 28.06499958
-2.81995891938028 1.70333417670895 17.05799961
-2.44606425624104 1.51108279602211 17.07400036
0.210040345502902 0.0630773841815221 0.90699959
1.32470666985465 2.40869111004969 8.05600071
