ply
format ascii 1.0
comment File exported by Rhinoceros Version 7.0
element vertex 1047
property float x
property float y
property float z
end_header
5.85845271427422 2.95798528871431 27.95000076
4.69676066714131 4.51942196775935 22.67000007
6.05958561573608 3.17353022242775 27.9300003
6.25970911416086 3.39284873462471 27.89999961
6.49506825563914 3.60137457870071 27.92000007
2.26563214499202 2.48216391262587 30.30999946
6.79695453432028 3.68212682166681 28.39999961
2.12809163486596 2.02888353445103 29.039999
5.89404351765558 3.79239709372408 28.01000023
0.717114422872891 1.86172452224632 20.88999939
1.26271545706143 1.7569662450142 22.14999961
1.19086091494067 2.26745547494778 21.03000068
1.71059132314193 1.77567992307888 23.01000023
1.72535851572138 2.20420656103431 22.20000076
1.62432474876958 2.70284698818777 21.039999
2.44824063145865 1.92042878591183 24.1800003
1.81637302289775 2.95235412825284 20.92000007
2.99384166564719 1.81567050867971 25.42000007
1.62669871517159 3.54050430435147 19.40999984
1.98630789345442 3.16359741615319 20.88999939
3.20910620962811 1.97838534362396 25.55999946
1.5297025603681 4.02405041757087 18.34000015
3.71341518254071 1.90706120541389 26.69000053
1.6814681762574 4.30321811817448 18.11000061
4.2177241554533 1.83573706720381 27.80999946
1.65292450148674 4.77272605211898 17.12999916
4.45409269996865 2.0404893327963 27.88999939
2.31432649520653 4.59785398568883 18.73999977
4.20697588237332 2.7224509036532 26.07999992
4.69449885663231 2.23014728445473 27.98999977
5.18871379917414 2.19655893107979 29.02000045
3.28064297671869 4.49241342677425 20.86000061
4.29799038954969 3.47059847087173 24.85000038
5.12796269046122 2.66553879769472 28.01000023
5.43416697102318 2.36734899032065 29.17000007
3.61776489845332 4.56237300161938 21.39999961
4.32285161249991 3.86138932399202 24.12000084
4.39405191191145 4.19987814567269 23.61000061
4.46020519613761 4.55723485977093 23.03000068
6.168862840824 3.73247079814099 27.95999908
2.98913111814083 4.0100776625669 34.92999839
6.54424861472336 3.78031696941463 28.63999939
2.48227994498672 2.15597485387846 29.64000129
3.30221429347398 3.92803796341231 34.94000053
2.81747652389137 2.11219900688859 29.74999809
3.95344748622767 2.58184947228046 35.46000099
0.432201069333704 1.95938660266455 20.94000053
0.664532001700753 2.17923318219109 20.96999931
1.01808476176112 1.8249677648939 22.36000061
1.96825079468006 1.77990446171553 24.29999923
1.72920920138134 2.43167740470433 22.57999992
2.30032570122931 1.86873192897824 24.80999946
2.75324858249518 1.86857771462536 25.69000053
1.72855495867212 3.28065545631858 20.95999908
1.60935193705295 3.84722029617529 19.62999916
1.95382006977963 3.52691708522972 20.92000007
3.49594490599728 1.99445868504074 26.90999984
2.15192476213026 3.75378275439371 20.89999961
3.99015984853911 1.96087033166581 27.95999908
1.85947827111068 4.48427277820671 18.92000007
2.38728390360854 3.96230859846971 20.95000076
4.22652839305446 2.16562259725829 28.02000045
2.26202446376691 4.5515149092275 19.54999923
2.61456782079021 4.20102307041382 20.90999984
4.41352965199725 2.43399762974094 27.87000084
4.72276214167044 2.12448708691633 29.05999946
2.69081513538714 4.52064399967692 20.48999977
4.25808158428751 3.01512871620212 26.45000076
4.65393580866091 2.62365558139937 27.95000076
5.01152618086959 2.25429585016811 29.38999939
3.01986183282516 4.62079220239017 20.94000053
3.24146318476106 4.39701783002723 21.789999
4.41489421536219 3.27542852438816 26.25
4.85405930708569 2.84297409359633 27.94000053
4.30881343322501 3.79293684395918 25.03000068
5.05721101462171 3.05097187034275 27.94000053
4.01636694220542 4.52342686777219 23.039999
4.43708238952903 4.52274458608972 23.90999984
5.71493055652105 3.73639859097739 27.89999961
5.95331790711056 3.93360369960285 28
6.16583463171277 3.74379153359153 28.76000023
3.6524584546906 3.94894101797176 35.23999977
3.16377653620386 2.02691379658006 29.76000023
0.14123129757206 2.07969015398386 20.94000053
0.374571632976185 2.29576315502689 20.96999931
0.686832331760604 1.97493187675174 22.21999931
0.779865645011131 2.71553228700324 20.95999908
1.782072012286 1.75032100835344 24.79999923
0.974942128250532 2.95371869161778 20.89999961
1.7636223678861 2.18209315746281 23.95999908
1.74012570830083 2.63273319898974 23.039999
2.48347627451214 1.90963611779087 25.89999961
1.96337201333419 2.88654198486791 22.96999931
3.0592659365688 1.81295306485536 27.17000007
1.64578390963187 3.59008889196674 21.02000045
3.38831263400682 1.91310126756861 27.64999961
1.57191056143696 4.10812527886734 19.87000084
3.75865139272079 1.97981533125982 28.25
4.13403716662014 2.02766150253346 28.90999984
1.80497050710856 4.68804601631648 19.21999931
4.46813087924354 2.10894181282914 29.40999984
2.40094822990674 4.51589139371069 20.72999954
4.27845657151738 2.69709198892777 27.88999939
2.68264644784635 4.67211520634707 20.98999977
2.93847403979867 4.44132174434668 21.92000007
3.3541424719369 4.45950735508178 22.70000076
4.35634883921177 3.49429607643198 26.48999977
3.75971687370437 4.51542875065203 23.37000084
4.29458832746177 3.96704952153042 25.52000045
4.94425133771334 3.3523300816943 27.9300003
4.30733671396707 4.40312331645288 24.65999984
5.17658227008039 3.57217666122084 27.95999908
5.34147012545168 3.80228784153877 27.87999916
5.58490449122656 3.98062505774665 28.01000023
5.80347763405124 3.76817142083425 28.82999992
6.01066695373556 3.96107488364661 28.87000084
3.95554106289716 3.78335452485027 35.01999855
3.52301186150999 2.13513722358993 30.30000114
5.1043912602806 1.90712662968481 22.40999984
-0.0863330093421279 2.20482341844586 20.98999977
0.412928948385082 2.15236717265335 22.05999946
0.308866972322056 2.66232833525735 20.88999939
1.9590727041022 1.9351492468692 25.539999
0.972642932443859 3.32511358499091 20.94000053
1.79958702424415 2.53137464726444 24.09000015
2.45328764664403 1.90156089349426 26.57999992
2.86390906359687 1.93861439664694 27.29999923
1.87747929193854 3.32857873476865 22.69000053
3.236266628385 1.99778130337111 27.95000076
1.6515599381218 3.93129515747176 21.11000061
1.59585584459426 4.38140713166911 20.17000007
3.63954183434579 2.42509759231449 27.92000007
2.00042084332466 4.44110210572287 20.79999923
3.8426935418818 2.63309536906091 27.90999984
4.19018988371972 2.3014714226648 29.23999977
2.24385520909954 4.61943932193076 20.94000053
4.08007148943423 2.83407405616988 28
2.78642803417686 4.52600178014918 22.1800003
4.27514797267364 3.07226046078442 27.92000007
3.32900085925417 4.4325642383676 23.44000053
4.16603898142523 3.60108951580599 26.70999908
3.7446692913924 4.4507498491027 24.22999954
4.29531734076633 4.32712367945301 25.54999923
5.11188701246334 3.93496826296779 27.9300003
5.39257582736587 4.09496565408768 28.13999939
5.61619598537593 3.86364412475771 29.01000023
4.27165244734154 3.68999409024514 34.96000099
7.75667251079377 2.99668841812665 34.89999961
4.10401677259154 3.10735590897165 33.3200016
4.63584132458888 3.90063220363946 35.80000114
4.56161281606611 3.57346411740934 34.8599987
4.16816994339239 2.14192499169804 30.78000068
4.06382757759684 3.01573389070815 36.67999839
4.29266298463179 3.85331409969541 39.05999946
-0.43465182772877 2.29765578572141 20.90999984
0.0595631148130585 2.26406743234648 21.9300003
0.000830812174289153 2.72550014199437 20.95000076
1.81923299816947 1.85326376206749 26.20999908
1.9175937163379 2.21114854349531 25.70000076
1.80242830686703 2.76261906941797 24.42000007
2.67268326601743 1.92789883570242 27.72999954
1.60972579002964 3.36208998096714 22.90999984
2.9211646469777 2.08736815949274 27.94000053
1.76451961503017 3.62993694612021 22.6800003
3.38720976772557 2.03815742485416 28.95000076
1.52547802173145 4.281709889109 20.97999954
3.80590640897503 2.04502230013872 29.76999855
1.72358271408208 4.50857555827299 20.9300003
4.08962343298879 2.19369895580808 30.05000114
4.15072970202957 2.56992356232389 29.45000076
2.63043787965091 4.5044935510837 22.71999931
3.98518760394907 3.18879043362022 27.9300003
3.08134195484263 4.51188649369784 23.59000015
4.22054674542735 3.39731627769622 27.96999931
3.66722564727005 4.37746765592719 25
4.2786248053569 3.78486161966257 27.32999992
4.26320337006823 4.20531303332139 26.5
4.61574672709153 3.85482119450771 27.87000084
4.82091724070169 4.0552718142871 27.90999984
5.18620898423028 4.14085377039588 28.4300003
5.36349006577901 3.96183427250552 29.12999916
7.33100351152895 2.89495601342465 35.01999855
7.52305178565712 3.14446315348972 34.94999885
7.72115647800775 3.37132882265371 34.91000175
4.98002906758304 3.9441767291 36.14999961
4.86258315495434 3.53670736005691 34.98000145
5.63023416465082 3.93209660479055 28.14999961
3.92342709219907 3.66154387871866 38.30999946
3.2521366872457 2.30125178404099 34.21000099
-0.695432971622301 2.42603456133734 20.96999931
-0.423828784053453 2.61999415880886 21.10000038
-0.2435194933935 2.42965392546796 21.84000015
-0.264997346904623 2.87274681002787 20.96999931
-0.0668926545539927 3.09961247919186 20.90999984
0.130202634759561 3.33025172683936 20.85000038
1.94897867373144 1.97288503170434 27.04999923
1.84794490677964 2.47152545885779 25.87999916
2.36969412105505 1.97220275002187 27.89999961
1.74085472160538 2.99280735691233 24.69000053
2.75012691013978 2.00118102887793 28.60000038
1.89564854660591 3.2606543220654 24.48999977
3.0751359954295 2.11642354552524 28.98999977
1.1690839790482 4.40473088425266 20.87999916
1.73212525459956 3.8719740363947 22.97999954
3.52805887669537 2.11626933117236 29.91000175
1.45078219698781 4.56095469688905 21.11000061
1.70459098286598 4.33770839185569 22.01000023
3.98703817618371 2.09347364591838 30.8599987
2.07896735372825 4.38932814161283 22.65999984
3.43371707802641 3.07362502414935 27.84000015
4.14385080725839 2.35377345410442 30.66000175
2.3324957498739 4.52992957298558 22.89999961
4.08814671373084 2.80388542830177 29.69999885
2.79450325847347 4.49581315228107 23.84000015
3.84708631435797 3.46320552825759 27.9300003
3.35221712910693 4.34577193324677 25.27000045
4.1408973687425 3.5741463990918 28.289999
3.93810082153434 4.21135309547612 26.64999961
4.25238032639292 3.88297466023394 27.9300003
4.45553203392893 4.09097243698036 27.92000007
4.94469996128537 4.076251976023 28.88999939
6.69199531111318 2.74424419561341 34.92000007
6.96763711083034 2.92310947915088 35.08999824
7.13252496620162 3.1532206594688 34.96999931
7.33567667373764 3.36121843621522 34.96000099
7.54589420253318 3.54280116357704 35.039999
5.26595182415931 3.84274107019826 36.0700016
3.66062714223139 3.79746981130161 38.46000099
4.79938330924406 1.95897770097129 22.30999946
-0.922997278536489 2.55116782579933 21.14999961
-0.768203453535964 2.81901479095239 20.9300003
-0.137644330393503 3.48504555183989 20.90999984
1.92686527015993 1.93462117953962 27.95999908
0.290772488250022 3.93930495749745 20.87000084
2.00008437564563 2.26556284425326 27.48999977
0.500990017045567 4.12088768485927 20.96999931
1.89097538439722 2.79439189927483 26.21999931
2.68470263921817 2.00389847270229 29.35000038
1.70331988274521 3.37499491840643 24.75
2.53531098973089 2.56238808826239 27.94000053
2.98154190271393 2.10351860808596 29.74999809
1.12687597797934 4.32065602295619 21.82999992
1.8248968707664 3.64608739471343 24.47999954
3.39721033485216 2.12170421882106 30.49999809
1.8064472263665 4.07785954382279 23.63999939
2.94060500176583 2.98215722023874 27.96999931
3.85820844041464 2.09136137660006 31.46999931
1.83130844931671 4.46865039694308 22.95000076
3.13770029107939 3.21279646788624 27.90999984
4.09659579100415 2.28856648522552 31.57999992
2.40709811137337 4.37196734400757 24.20999908
4.15972086611908 2.6572439347743 30.99999809
2.91645409947134 4.28177531337992 25.4300003
4.0888757270354 3.16395958622436 29.8599987
3.15786965917208 4.46765968655484 25.53000068
4.21247152113073 3.42750490556433 29.62000084
3.6692444533442 4.36992049896016 26.75
4.18695605547131 3.8856921040583 28.67000007
4.2168642936069 4.25761506476101 28
4.72722968474195 4.16364945564985 29.19000053
6.22402484753534 2.67971950841698 35.01000023
-1.02677886486699 2.69728125199722 35.0700016
6.47452503456976 2.83164167524026 35.23000145
6.6242718443849 3.1183565328109 34.94000053
6.8545839706778 3.34575026930447 34.94999885
7.10003714252684 3.51654032854533 35.1099987
5.56398741718048 3.69602246949434 35.87000084
5.30008460093155 3.95700455936285 28.02000045
-1.3035235308654 2.6434721257453 21.12999916
-1.11652227192261 2.91184715822795 20.95999908
-0.916398773497824 3.13116567042491 20.95000076
-0.716275275073042 3.35048418262187 20.9300003
-0.519179985759488 3.58112343026937 20.88999939
-0.316028278223477 3.78912120701579 20.89999961
1.51312218085168 2.03017099063952 27.88999939
-0.0857161519305809 4.01651494350936 20.90999984
1.75050012840411 2.23114967774849 27.97999954
1.97109207730294 2.01114888386906 28.84000015
0.226170693877143 4.18081398044236 21.20999908
1.93043556608737 2.52593975961574 27.72999954
2.41997734642051 2.02608898345023 29.67999839
1.77801570748886 3.09575011062638 26.36000061
2.17386993186226 2.70427697582362 27.88999939
2.87390963072346 2.02216119061383 30.58999824
0.962810599156783 4.32933642175882 22.37000084
1.93280953248938 3.36359707577944 26.17000007
3.11128757827589 2.2231398777228 30.67999839
1.2092731740429 4.49635290251617 22.54999923
1.866002005554 3.85521841329545 25.10000038
2.60430555657993 3.15098922451416 27.88999939
3.65386040335321 2.12970233594122 31.89999961
3.98896351901369 2.20720906775339 32.44000053
2.13227878820495 4.43189363959065 24.47999954
4.10751229792364 2.48962227951093 32.14000129
2.64163477630292 4.34170160896301 25.69000053
4.12328889354017 2.91437533898285 31.3200016
3.44508220851794 3.99860271276347 27.92000007
3.58675379403647 4.31550619820222 27.59000015
4.15484208477321 3.76388145792668 29.78000068
3.99434700187809 4.36388043680543 28.28000068
4.25623101205287 4.11044550390396 29.29999923
5.70971530749616 2.66749685266016 34.92999839
4.54196684214079 4.25157500260628 29.57999992
6.08207287228428 2.72666375938433 35.55999946
-0.701676316333106 2.69124118984249 35.30000114
6.31311401188173 3.3141316538005 34.87999916
6.55049195943416 3.51511034090947 34.94999885
6.84531241685576 3.62227763326017 35.32999992
5.77063465004859 3.28628661678004 34.94999885
6.71493119123341 3.02129962689869 34.89999961
4.38793941574249 1.68313261869806 21.30999946
2.93712816908257 2.26955606136058 33.91000175
4.47226195463602 1.97256492009304 22.12999916
-1.64982354317789 2.72875733605383 21.07999992
-1.4628222842351 2.99713236853647 20.90999984
4.55750043332246 2.37950622180655 23.29999923
-1.03238665951742 3.44384461722701 20.94000053
-0.834281967166788 3.670710286391 20.90999984
-0.555611958338406 3.83825483447792 21.12000084
1.1970107964073 2.12353142524465 27.92000007
-0.213443021418395 3.88934651690549 21.73999977
1.78491329490888 1.98156543050697 29.34000015
2.11496939538397 2.07794005473671 29.76999855
1.93236090891735 2.63967518145074 28.34000015
2.14992464870495 2.43099512302186 29.20000076
2.63441941385271 1.95001223927392 31.0700016
2.04081565745654 2.95982417804343 27.94000053
2.82444888190673 2.20706653630603 30.92999839
1.89344281404341 3.5107666366365 26.62000084
2.23892034980717 3.18668984720741 27.92000007
3.36702170698404 2.11362899452445 32.19000053
1.82259767495972 4.01748228808656 25.52000045
1.88269454096343 4.39748047308589 24.88999939
2.66935597452485 3.63340209589795 27.92000007
4.01804928060055 2.34034044933555 33.03000068
2.38498470780187 4.33370349184284 26
2.85405803766096 4.27317202175373 27.06999969
4.03051727737332 3.14026198066412 31.539999
3.27477348498458 4.27248974007126 27.88999939
4.15007545932036 3.41890161393814 31.23999977
5.11906498961588 2.45693584644227 34.99999809
4.13162581492046 3.8506737630475 30.3599987
5.36451816146492 2.62772590568313 35.17000007
4.19777909914663 4.20803047714574 29.789999
5.55959464470432 2.86591231029766 35.08999824
5.73687572625304 2.68689281240731 35.78000068
5.75164291883249 3.11541945036274 34.94999885
5.95176641725727 3.3347379625597 34.96999931
6.1851067526614 3.55081096360273 34.98000145
3.38277960995173 3.86871684233524 38.46000099
6.48699303134253 3.63156320656883 35.44999885
7.02296735138118 2.95812782016167 34.92000007
3.08584688321181 3.89037928575361 38.30999946
-2.12091567911114 2.79683596310997 20.88999939
-1.85536790976475 3.01343703148258 20.95999908
-1.65827262045119 3.24407627913008 20.94000053
-1.42493228504707 3.46014928017311 20.96999931
-1.17443209801265 3.6120714469964 21.20999908
-0.887686864887655 3.74942736721521 21.53000068
0.80850278302596 2.1247417742567 27.96999931
1.13553067438983 2.23243713393699 28.39999961
1.63479263211704 2.17998088814448 29.51000023
1.97292395688874 2.24616688450611 30.0700016
2.14515802325209 2.08601527903332 30.71000099
2.06623765987179 2.6229195583515 29.5
2.50439334855822 2.19423870604318 31.23000145
1.90574257697667 3.22291853723026 28.03000068
3.04191915845015 2.11966905667918 32.39999961
2.01924434070124 3.52419964140537 27.69000053
3.28737233029919 2.29045911592003 32.58999824
3.71414419584526 2.26713536333648 33.48999977
2.03474054658525 4.31280043728339 26.22999954
2.50813187832517 3.87332691685411 28
4.07842653633678 2.35649089792877 33.99999809
2.6629257033257 4.14117388200718 27.789999
4.01969423369801 2.81792360757667 33.01000023
4.51024541706822 2.31429925292765 34.96000099
2.90938827821181 4.30819036276452 27.95000076
3.12493321192526 4.10705746130266 28.76000023
4.75065157373188 2.50395720458608 35.07999992
3.4489328941779 4.22607355643348 29.17000007
4.9406810417859 2.76101150161818 34.92000007
5.20660266410899 2.49248225478265 35.99999809
5.57325897100252 3.41949510553864 34.92000007
5.77641067853853 3.62749288228506 34.92000007
6.15684346762326 3.65647116114113 35.6099987
7.11069195236264 2.75110907089797 39.21000099
-0.368498543502607 2.65501249981965 35.42999839
7.32595649634357 2.91382390584222 35.01999855
4.99204844078379 4.02017636609987 27.97999954
4.03264823934049 1.68109745655617 21.07999992
-2.09403565008677 3.18007965926323 20.95999908
-1.86372352379388 3.4074733957568 20.97999954
-1.58202530585427 3.56369720839318 21.23999977
0.599014267534971 2.30323320481748 27.96999931
0.829326393827867 2.53062694131105 27.97999954
1.14663410779767 2.19092777061833 29.29999923
1.02440287706727 2.76881334592558 27.9300003
1.24865858513771 3.01884855332024 27.89999961
2.17231844200897 2.10541123878047 31.49999809
2.0098045530397 2.71295737462626 29.99999809
2.49127110907623 2.24329522632887 31.85000038
2.16459837804022 2.98080433977932 29.789999
2.90189252602908 2.28034872948154 32.60000038
1.96382063690622 3.61046387919661 28.19000053
3.43941833592101 2.20577908011753 33.76999855
1.90206012515623 4.08321732429505 27.15999984
3.91151987489134 2.13392687457788 34.87000084
4.14687901636961 2.34245271865388 34.92999839
2.54804068358735 4.32879667152372 27.95999908
3.95619530560638 2.93437647323602 33.42000007
4.38728517303327 2.53211067031231 35.01999855
3.00701998307568 4.30600098626975 28.9300003
4.13613074328964 3.22916655510327 33.17999839
4.58034285019852 2.77784423189387 34.94000053
4.88957533987171 2.46833368906926 36.16000175
3.57978143602111 4.22063866878478 30.19999885
4.06427620116887 3.73965578503685 32.0700016
4.80459855826896 3.02787943928852 34.89999961
4.08711861804493 4.13799379512416 31.37000084
5.43818589052265 3.68258946472547 34.92000007
6.49076894640715 2.649981840702 38.96000099
5.85688253177211 3.68945434001003 35.71999931
6.73420331218204 2.82831905690989 39.1099987
6.97259066277154 3.02552416553534 39.17000007
7.17473296727048 3.23729552076528 39.17999839
7.63903967167671 2.83178420668763 35.01000023
4.36984493167046 2.96010924093815 24.71999931
2.75771612556669 3.90774008335888 38.14999961
2.43766059221818 3.89491225309603 37.8599987
4.50233842661113 3.43225751153057 26.07999992
0.32318554132947 2.36693307888408 28
0.528356054939634 2.56738369866347 28.039999
0.828503917279138 2.29183536219049 29.13999939
1.14882114771133 3.27115024438611 27.90999984
1.93548258127275 2.50707186719817 30.94999885
2.23966805576056 2.21642921679113 32.10000038
1.35197285524734 3.47914802113253 27.95000076
2.21718079921236 2.66329567983455 31.17999839
2.65533648789879 2.23461482752623 32.87999916
2.06375153757677 3.23687960932871 29.76999855
1.88114305111015 3.79861473604274 28.37000084
3.54512526508149 2.17340107575465 34.76999855
1.95739036570707 4.11823566530584 27.94000053
3.83187049820649 2.31075699597346 35.0700016
2.19779652237073 4.30789361696427 28.03000068
3.98666432320701 2.57860396112653 34.87000084
4.29084979769482 2.28796131071949 36.01000023
2.78368021479815 4.17347477919362 29.4300003
4.57153861259735 2.44795870183939 36.28000068
3.31817781557885 4.11022586528015 30.57999992
4.65245908940297 3.23384205389306 34.92000007
4.85561079693898 3.44183983063948 34.92999839
5.05775310143791 3.65361118586941 34.92999839
6.10024212695165 2.65873934668108 38.87000084
5.30421567632403 3.82062766662675 35.07999992
5.47644974268737 3.66047606115397 35.71999931
6.34872350791192 2.81820867047139 39.05000114
6.55894103670747 2.99979139783321 39.12000084
6.79732838729697 3.19699650645867 39.19000053
6.9954330796476 3.42386217562266 39.14000129
4.68704048974725 4.07202743738635 27.88999939
1.85160866595125 2.94156146013188 34.89999961
1.53650668454395 3.0311483162535 34.92999839
-0.10560513029075 2.39780398843466 27.85000038
0.388609812251078 2.36421563505973 28.89999961
0.665709638577342 3.26322923444238 34.91000175
0.361075540517499 2.82994999052072 27.94000053
2.3081205357934 2.20239103751624 33.03000068
2.03889031462656 2.84608875620842 31.289999
2.68047810058152 2.26155794424041 33.62000084
1.93280953248938 3.36359707577944 30.0700016
3.06091088966626 2.29053622309648 34.3200016
1.60209918930507 4.11620050316396 27.95999908
2.04631129621395 3.66487817995455 29.73999977
3.43629666356561 2.33838239437011 34.99999809
1.83543952470919 4.33227350420698 28
2.09429532577275 4.09015930675605 28.96999931
3.88720073875733 2.34577533698425 35.85000038
2.46362468144964 4.16064694893077 29.57999992
4.21927564530658 2.43460280424696 36.37000084
2.96591484828808 4.09686996768772 30.71000099
4.06180877152269 3.02328104767518 34.92000007
3.20430219887759 4.29407507631318 30.78000068
3.51555349462493 3.97701737652155 32.01999855
3.95471858634843 3.54456294572972 33.73999977
5.67145145533143 2.68961025623166 38.76000023
4.90763243864608 3.85202664350692 34.98000145
5.96324370364181 2.8080982840329 39.10000038
5.36963994724564 3.8179102228024 35.96000099
6.20163105423131 3.00530339265836 39.17999839
6.39872634354487 3.23594264030586 39.12999916
6.63206667894899 3.45201564134889 39.16000175
4.37193850833995 4.16161429350797 27.92000007
3.39749072458468 1.75785648241495 20.87000084
0.771136178005305 3.59469896648561 35.85000038
-0.4981507558204 2.41410865138077 27.90999984
-0.224527762177399 2.60052109188527 28.09000015
-0.0707433402139503 2.87214163552184 27.90999984
0.132408367322061 3.08013941226826 27.92000007
0.334550671820996 3.2919107674982 27.92000007
0.76599569957575 3.73484943770521 27.89999961
2.06633112311597 2.50163697954946 32.8200016
2.24966862288715 2.29997601075802 33.62000084
1.00135484105403 3.94337528178122 27.97999954
2.786185029742 2.22917993987753 34.78000068
2.15229861510696 3.26865243918556 31.55000114
3.06485503857039 2.39672448796446 35.03000068
3.20185346188023 2.24736555061263 35.6099987
2.04016141474732 3.80880222965767 30.3200016
3.69102138923668 2.23264508965527 36.57999992
2.10631469897349 4.16615894375592 29.74999809
3.89114488766146 2.45196360185223 36.57999992
2.43334259033735 4.2738543034362 30.19999885
2.64585931493957 4.08404213742488 30.94999885
3.65513150347397 3.09241580939048 34.87000084
3.89654706317471 3.2783001825654 34.96999931
4.8191975170089 2.36863644650915 38.539999
3.96673795954917 3.62056258272958 34.44999885
5.06061307670963 2.55452081968406 38.64999961
4.29174704483889 3.73580509937689 34.8599987
5.34937711590877 2.68432958293585 38.98999977
4.70438726786589 3.76531144556253 35.64000129
5.5867550634612 2.88530827004482 39.07999992
5.03141515922976 3.87300680524282 36.08999824
5.82514241405071 3.08251337867027 39.19000053
6.01820009121596 3.32824694025184 39.07999992
6.25355923269423 3.53677278432784 39.12999916
-0.0665188015772978 2.61448216398372 35.57999992
1.77736146477964 3.94472816224063 34.82999992
0.409975509869193 3.37274011764074 34.98999977
4.05380831782142 4.26252188508013 27.97999954
0.469156436079996 3.63522930232154 35.74999809
-0.644327269708107 2.71871237388626 28.02000045
-0.481458220410972 2.95637071117121 27.89999961
-0.0490037896191414 3.39553580289471 27.9300003
0.179289530599602 3.63047669635531 27.90999984
0.111939916848015 3.51945871834465 35.19999885
0.381431835098537 3.84224805158524 27.90999984
2.12900757465887 2.14639253476955 34.64999961
2.41575280778386 2.28374845498836 34.92000007
1.09696773984375 3.94873306225347 29.13999939
2.14652258661702 2.92744617368054 33.17000007
2.75590293862972 2.34238729438296 35.48000145
1.38270356993166 4.0898625609558 29.4300003
2.00217795231512 3.46706789682307 31.87000084
2.82407502893003 2.69219685151417 34.92999839
3.22194805937758 2.29317655974438 36.51000023
3.51676851679919 2.40034385209508 36.89999961
2.27047354104022 4.03619596615125 31.30999946
3.22936904096498 3.11196598349052 34.96000099
3.84278700512598 2.51181279025888 37.3599987
3.86058240681665 2.92901869276376 36.57999992
4.34003015677904 2.4669037014334 38.39999961
3.66485168086804 3.53981033976348 35.01000023
4.67210506332829 2.55573116869611 38.89999961
3.86295637321867 3.76667600892747 34.96999931
4.95279387823082 2.71572855981601 39.12000084
4.0650986777176 3.9784473641574 34.94999885
4.54224723187331 3.88772726620018 36.10000038
5.33395568062011 3.10478099659466 39.16000175
5.52903216385951 3.3429674012092 39.05000114
5.73622148354383 3.53587086402156 39.12000084
0.531552497890376 3.64383259394774 38.76000023
-1.13349519706455 2.73343283484362 28.04999923
3.11459617711964 1.84797140586615 20.87999916
-0.938418713825154 2.97161923945815 27.96999931
-0.768483843268485 3.1828625273585 27.94000053
-0.568360344843703 3.40218103955546 27.90999984
-0.365208637307691 3.61017881630188 27.90999984
0.00513012140628077 3.67689287999309 28.539999
0.316007564176928 3.84496549540959 28.81999969
1.89437744648514 2.29794084861614 34.92000007
2.12973658796342 2.50646669269214 34.98000145
2.28352100992687 2.77808723632872 34.76999855
2.75792174470387 2.33484013741593 36.55000114
2.1422045847362 3.30638822402071 33.48000145
2.52998358481299 2.94510371708606 34.92000007
3.18469361024994 2.31151638483237 37.42999839
2.04016141474732 3.80880222965767 32.30999946
2.69991845536966 3.15634700498642 34.89999961
3.5641169962976 2.34426824217195 38.12999916
3.80553255599833 2.53015261534687 38.24999809
2.57538802883258 4.1056274736668 32.8200016
4.19101236026845 2.54026300178536 39.03000068
3.20155437949888 3.94154807535762 34.3599987
3.82001935884526 3.3225269897084 36.78000068
4.42939971085795 2.73746811041082 39.10000038
4.65668362803962 2.97618258235493 39.07999992
4.16181444278858 3.85874898734411 36.42999839
4.73293094263655 3.29580351161803 38.64999961
4.96526187500359 3.51565009114457 38.64999961
5.26512934761058 3.6039494910777 39.08999824
0.239498552496316 2.55885751421372 35.66000175
3.7477909637478 4.31814653485013 27.90999984
-0.213162631685874 3.52549878049938 34.96999931
-1.47181344832461 2.90981199608607 27.97999954
-1.27976517419644 3.15931913615114 27.88999939
-1.04945304790354 3.38671287264471 27.92000007
-0.814093906425263 3.59523871672071 28
-0.448802162896672 3.68082067282949 28.53000068
-0.205367797121785 3.85915788903737 28.70000076
1.41227534038823 2.2862462601889 34.94999885
1.61340824185009 2.50179119390235 34.91000175
1.84876738332837 2.71031703797835 34.96000099
2.24159339859054 2.33016463862614 36.48000145
2.52833863171553 2.46752055884495 36.80999946
2.27617479893482 3.16835002211943 34.94000053
3.10311889073511 2.37461108439295 38.08999824
2.21239548111067 3.64865062418489 33.91000175
2.47125128217422 3.40653642673396 34.87999916
3.42711857298775 2.49362717952377 38.53000068
2.66632776541362 3.64472283134849 34.8200016
3.80048554081295 2.54902050776444 39.16000175
2.89663989170651 3.87211656784206 34.82999992
3.77698888122768 2.99966054929137 38.26999855
3.13704604837017 4.06177451950049 34.94000053
3.70816254821814 3.49882904377441 37.16000175
3.96399014017047 3.26803558177402 38.08999824
4.23092116553063 2.99573275645497 39.14000129
3.81964550586856 3.80765730491655 36.74999809
4.39782782697607 3.21829677980586 39.07999992
3.93819428477852 4.09007051667409 36.48999977
4.63823398363973 3.40795473146429 39.17000007
4.82826345169375 3.6650090284964 39.05000114
0.837569851963989 3.58820794417774 38.80999946
-1.77287725045701 3.06785133224052 27.97999954
-1.57578196114346 3.29849057988803 27.95999908
2.8015130017865 1.93001110502075 20.89999961
1.0941451498697 2.38715385176107 35.01000023
1.33051369438506 2.59190611735355 35.05999946
1.58836009241153 2.35356549838613 36.039999
1.4842981163485 2.86352666099013 34.87000084
1.91034096859002 2.48012875048398 36.42999839
1.72268546693801 3.06073176961559 34.96999931
2.45594200277856 2.37537047325186 37.69999885
2.38913447584318 2.86699181076787 36.62000084
2.82527135845546 2.44585811542658 38.30999946
2.16624333113768 3.45838749802044 35.08999824
3.20873235665142 2.4635156588321 39.05000114
2.36300215277221 1.51348748419833 15.75
2.2777262887881 3.76721575916258 34.69999885
3.41592167633574 2.65641912164447 39.10000038
2.52116065456299 3.94555297537046 34.83999824
3.61907338387175 2.86441689839089 39.1099987
2.98215876012547 3.91521013314946 35.82999992
3.81112165799992 3.11392403845596 38.98000145
3.86919971792947 3.50146938042232 38.32999992
4.06225739509472 3.74720294200388 38.24999809
4.48499164849249 3.73897350335438 39.12999916
0.534412473162091 2.54474222776239 35.85000038
2.07550921369383 2.3463921943958 36.42999839
3.467924625394 4.39694072285078 27.90999984
-1.87078934505341 3.4338884451414 27.92000007
3.14089673403013 4.2892453631705 27.37000084
2.08818282960378 1.57341377978142 19.39999961
0.821251169531257 2.56081556917916 34.96999931
1.36382399460857 2.46737802739758 36.21000099
1.44979148659956 3.23439348703369 34.92999839
2.31903704271289 2.40344683180165 38.23000145
1.65496200020973 3.43484410681308 34.92999839
2.47887788289879 2.65242590453714 38.07999992
2.73773368396234 2.41031170708621 39.039999
2.32948623341151 3.21091552009724 36.69000053
2.98116804973723 2.5886489232941 39.17999839
2.0985198644094 3.83249983521792 35.0700016
7.00745245284834 3.49986181262253 39.1099987
2.33085079677645 4.05234641474447 35.10000038
3.37838683747557 3.03860668313856 39.12999916
2.94894192314613 3.91845564430339 36.58999824
3.61172717287969 3.25467968418159 39.17999839
3.80680365611909 3.49286608879612 39.1099987
4.00692715454388 3.71218460099309 39.07999992
4.1969566225979 3.96923889802519 38.94000053
1.12945556351854 3.58541339317695 39.039999
2.80570015512548 4.33302121016037 27.30999946
6.70446330788596 3.54416572694198 39.01000023
0.264733628423222 2.46451805212587 34.91000175
0.670308030190689 2.52043944769611 35.62000084
6.39642714773819 3.607337533679 38.98000145
0.720310865823633 2.93817341753058 34.91000175
2.06633112311597 2.50163697954946 38.42000007
2.4467639122007 2.53061525840553 39.14000129
1.55906871168749 3.79333406274692 34.96000099
2.42932367083788 2.95861382903138 38.28000068
2.3192052765524 3.49121646253646 37.05000114
2.84701090905027 2.96925228279945 39.1099987
2.42362241294329 3.8264597730632 36.62000084
3.08035124445439 3.18532528384248 39.14999961
2.74762209519593 3.94547586819402 37.03000068
3.37378844586222 3.78139646988483 38.57999992
3.74614601065035 3.84056337660901 39.21000099
0.834373409013248 2.51175904889348 35.96000099
1.79611019156089 1.81877348838628 19.87000084
0.35217783967216 2.62134703926828 35.71999931
0.37199204743699 3.03100578480614 34.96999931
0.533851693697049 3.2724377005746 34.8599987
1.49274719362181 2.34820771791387 38.51999855
0.74507862552967 3.45024684945291 34.94000053
1.73416275332254 2.53409209108879 38.62999916
0.980437767007947 3.65877269352891 34.98000145
2.06825646594595 2.61537240138447 39.14999961
1.22589093885699 3.82956275276976 35.16000175
2.23314432131723 2.84548358170239 39.05000114
2.46345644761013 3.07287731819596 39.05000114
2.59475361302538 3.79136432487596 37.96000099
2.89692028143904 3.50826883143595 39.08999824
3.05575171858787 3.76102148265496 38.94000053
5.82652567006448 2.59360948497862 35.8599987
3.30726130865936 3.90917007099474 39.14999961
6.09343800277581 3.65164144799845 38.87999916
1.43244470848092 3.5411094788575 39.14000129
5.50344192760474 2.59210239016632 35.62999916
1.96172706023673 2.4089588266268 21.55999946
-0.275091377275385 2.91048259486301 34.94999885
0.123136813500027 3.35666677622396 34.89000129
0.325279117998962 3.5684381314539 34.91000175
1.32748548527383 2.6032268528041 38.73999977
1.68167379539458 2.73031817223153 39.17000007
1.77911857377011 2.97069395334083 22.94000053
1.0578814111303 3.73205488670442 36.05000114
1.67432758440252 3.12058095802223 38.44999885
1.30333458297934 3.90284494594528 36.23000145
1.87243227675315 3.34744662718622 38.42000007
2.07255577517794 3.56676513938319 38.39000129
2.44996035515144 3.60706415368979 39.039999
2.65513086876161 3.80751477346918 39.07999992
1.13635315093856 2.47122871305754 36.0700016
-0.956307578760005 2.6756959157553 35.039999
5.79347706692465 3.68462462686736 38.73999977
-0.73104246765249 2.92195754466644 35.01000023
-0.535965984413089 3.16014394928097 34.92000007
-0.338870695099536 3.39078319692848 34.89999961
-0.0903893141392673 3.55025252071879 35.12000084
0.868506185785493 2.62602253805807 38.78000068
0.282977653685934 3.60564584895946 35.71999931
1.19048706196398 2.75258579015592 39.16000175
1.59376226792477 3.1799020790993 39.16000175
5.14925361748399 2.46501107073888 35.03000068
1.78278233294172 3.44072995461492 39.01999855
1.97584001010696 3.68646351619648 38.94000053
2.2565288250095 3.84646090731637 39.19999885
5.48342210070273 3.75534359057141 38.71999931
4.81304763554226 2.51256049621227 34.94999885
-1.18497475195544 2.92588533750284 34.96999931
-0.986870059604813 3.15275100666683 34.92999839
-0.784727755105878 3.36452236189676 34.96000099
-0.467793894112773 3.50995350641219 35.289999
0.447790738461882 2.62670481974054 38.8200016
0.734535971586874 2.76406073995935 39.12999916
0.926584245715046 3.01356788002442 39.03000068
1.13680177451059 3.19515060738624 39.12999916
1.33692527293537 3.4144691195832 39.07999992
1.54209578654554 3.61491973936259 39.12000084
1.75029450926693 3.80404962369144 39.19999885
1.9065650535254 3.46171011635081 24.31999969
2.03703974239192 3.94140554391025 25.70000076
-1.47291631460586 3.03486815337162 34.96999931
-1.27279281618108 3.25418666556858 34.96000099
-1.03238665951742 3.44384461722701 35.0700016
0.17499022136761 2.6790839583566 38.94999885
0.413377571957116 2.87628906698205 39.01999855
0.656811937732003 3.05462628318994 39.16000175
0.765266686271195 3.37477527978262 38.80000114
1.04191788902542 3.54986698483658 38.98000145
1.28737106087446 3.72065704407743 39.17000007
5.147216118761 3.80289301604479 38.62999916
4.50299266932035 2.58327945991632 34.89000129
4.84220816772447 3.85474408733127 38.51999855
2.49656112869646 4.52124917418294 22.5
-1.58082897632884 3.3173584723056 34.92000007
2.1374192666345 4.29174316837105 26.6800003
-0.0998291018008138 2.73901025393969 38.98999977
0.130483024492082 2.96640399043326 38.99999809
0.368870375081588 3.16360909905871 39.12999916
0.596154292263255 3.40232357100283 39.10000038
0.796277790688037 3.62164208319979 39.1099987
1.2914273656716 2.3752279418045 20.98999977
0.362271870042923 2.58361125443313 20.88999939
1.37649761051853 1.6943996127832 14.21999931
-0.497328279271671 2.65290023050133 39.07999992
-0.267016152978775 2.8802939669949 39.10000038
-0.0699208636652214 3.1109332146424 39.0700016
0.163419471738903 3.32700621568543 39.12000084
4.11164337331612 2.35324538677484 33.99999809
0.371618194460296 3.51613610001428 39.17000007
4.50903039489397 3.89097277735411 38.39000129
-0.233705852755259 2.75576587703893 20.92000007
1.5491803004539 2.25816990163912 15.81999969
-0.760128229239354 2.78882616308428 39.12999916
-0.560004730814572 3.00814467528124 39.16000175
-0.362909441501018 3.23878392292875 39.10000038
-0.129569106096893 3.45485692397178 39.12999916
-0.541742012903025 2.81893768377595 20.84000015
-0.864919218606936 2.93871316776569 20.95000076
-0.958606774566678 3.04709080912843 39.23999977
-0.763530291327277 3.28527721374297 39.16000175
-0.563406792902495 3.50459572593993 39.14999961
3.74937983889876 2.25634269521552 33.49999809
3.88682688578064 2.8309056521924 35.16000175
-1.49108556927323 3.10279256607487 20.95000076
1.69167436252117 2.81386496619842 17.40999984
-1.01733907720545 3.50852351877633 39.30999946
-1.77398011673826 3.19290748952607 20.94000053
4.01427336553593 3.32192181520238 36.55000114
4.20402244385743 3.94282384864059 38.30999946
-2.08403508296018 3.26362645323012 20.94000053
3.13080270365937 4.32698114800565 23.73999977
3.84175890944007 3.84592115708127 37.80000114
3.04999438274676 2.08948042881106 32.5700016
3.55381734678965 3.95490397295004 37.92000007
2.00881384265145 1.38639616477089 15.12999916
2.77911920848247 2.25559498926213 32.80999946
2.83781412582357 4.45483185629199 23.87999916
2.99593524231668 3.01717556124953 34.98000145
3.21669542505502 3.8849443981049 37.46000099
2.68487087305769 3.09166810343709 34.94000053
8.0753447881285 3.49842014208115 27.88999939
2.91370628009264 3.92924831242436 37.32999992
1.71279705570443 1.52556760850778 15.289999
2.37178769772454 3.17370780259168 34.96000099
7.8175918533462 3.61547818224653 28.01000023
2.53437635728915 3.77521387628274 36.67999839
2.22157357168853 3.49340583903123 20.92000007
2.1991797783845 3.81898972327261 36.55000114
1.71543271919013 3.32971197660426 34.91000175
7.48744228962693 3.64038613681883 27.87999916
1.47798000104236 1.91968107995845 16.1800003
1.866002005554 3.85521841329545 36.42000007
6.91963438862271 3.82816314068826 27.95999908
1.43253817172509 3.41982690005546 34.91000175
1.62854928740623 2.44518751664964 17.6800003
5.52198503524881 2.03904766225492 22.23999977
5.18991012869956 1.95022019499221 21.789999
4.82874946056345 1.72826134614734 20.95000076
1.77306215554765 2.99333542424192 19.26000023
1.54089945702011 3.86125847545018 36.21000099
1.1395495938893 3.54767760834181 35.05999946
1.91858442672614 3.53770975335068 20.79999923
1.23791031205773 3.90556238976963 36.0700016
4.59897942108676 2.10350692518043 21.78000068
4.19359194580764 1.80502037200612 20.72999954
1.76111755294225 4.12638799677889 22.23999977
4.41939914373136 2.65392131644392 23.14999961
4.5448268174125 3.15248463642093 24.56999969
0.829494627667379 3.61839657204586 35.03000068
1.83433665842794 4.45732966149253 23.19000053
0.524486676630842 3.67024764333234 34.94999885
3.86848939727375 1.81106043416084 20.52000045
4.36423713702003 3.70667260616794 25.90999984
4.52480699051049 4.31572583682603 27.67000007
1.34472010749946 3.7481282281212 20.94000053
3.61468061139558 2.03430673919421 20.90999984
1.50730876706408 4.34963430181225 22.65999984
4.24393124911961 4.3982936033102 27.63999939
1.18220621853019 4.35567436396698 22.45999908
3.22837833057674 1.78540477363516 20
2.34857142787178 3.26050010771251 39.039999
6.28137389416034 2.70719069246074 35.5700016
3.5897820031477 4.30418546275168 26.95000076
5.9763659431238 2.75904176374722 35.48000145
5.62116822996597 2.6357240228033 34.89999961
0.75681760899789 3.89009422285888 20.90999984
2.53211454678015 1.48593919297812 18.71999931
2.7207607588204 2.23189738370188 20.85000038
5.30606624855867 2.72531087892492 34.92000007
4.98995486411429 2.81867131353005 34.94000053
3.32597265014294 4.44388497381814 27.12999916
2.24619179020388 1.58737485187987 18.78000068
4.67989989789237 2.8893902772341 34.92999839
3.96849506853964 2.64652837382978 33.80999946
0.466857240273322 4.00662419569468 21
2.43584740528121 2.32955946412011 20.90999984
3.02903992340301 4.46554741723651 26.96999931
4.08392217509419 3.0615448998399 34.96999931
2.70393737486913 4.47158747939124 26.789999
0.130651258331595 4.05417362116806 20.90999984
1.62617532100422 1.60753020048593 18.38999939
1.75463120379659 2.0947727850124 19.789999
1.90217228104923 2.63159995715413 21.30999946
1.05513359175159 3.37952788574886 20.89999961
3.77588601494643 3.12471670657692 34.92000007
3.92140828612492 3.66909103568568 36.49999809
2.35479607993375 4.32562826754623 26.12999916
5.95012146415982 2.85715480431859 34.89000129
2.92198712352643 2.32615973861329 32.16000175
1.73158316778335 3.26933472086803 22.92000007
5.63703828882667 2.93919450347318 34.87999916
1.83893505004129 3.71453987474626 24.1800003
2.02363711317741 4.35430980060204 26
1.24893897487023 2.65500081691413 20.89999961
3.15779488857674 3.25860747701799 34.83999824
3.33240292134209 3.93611318770892 36.78000068
0.966044427405193 2.74511574036533 20.94000053
7.67739698708561 2.68838822431409 21.17000007
0.375113719792393 2.89840247055356 20.95000076
2.52256260322559 2.12631429333993 31.37000084
3.00730037280821 3.94215324986364 36.53000068
0.0952473814385872 2.97719665855422 20.95000076
-0.810785307581513 3.22007024486406 20.9300003
-1.10175507934316 3.34037379618338 21.039999
7.32210581068361 2.68635306217221 20.95999908
-1.38767783591942 3.44180945508512 21.10000038
-1.68965757784473 3.48233979092106 21
2.26563214499202 2.48216391262587 32.12999916
2.40418205815515 2.9316707123172 33.42000007
7.00902263535046 2.7683927613268 20.95999908
2.52658152272506 3.44155476774475 34.89000129
2.69623600354921 4.01664579205121 36.48999977
2.3540670666292 3.96555410962364 36.12999916
6.67382605644581 2.81216860831667 20.85000038
1.92858499385273 3.62125654731757 34.92999839
1.66477564084797 3.76095605838404 35.08999824
5.99793725987909 2.19466630038528 22.14999961
4.75816601856345 3.20146404953018 34.94999885
5.62567315833514 2.01421681485906 21.38999939
1.76949185962021 2.40201684416579 36.32999992
1.32957906194332 3.80473190537391 34.99999809
5.26340962391778 1.91731412329974 20.89999961
6.36377109022389 2.88288757202072 20.85000038
4.94830764251048 2.00690097942137 20.92000007
4.46456058331611 1.51762323275301 19.29999923
4.64926264645223 2.15739315860879 21.11000061
4.16854379636908 1.6567946764899 19.47999954
4.49372111549831 2.85980682387202 22.90999984
5.45672899816672 3.12953473681408 20.87000084
4.64429040186218 3.38531326056321 24.39999961
4.00905811651104 2.25302007688514 20.95000076
4.39947278007353 3.69587993804698 25.05999946
4.46370072146971 3.93950123031021 25.75
4.23998710021548 4.29210533844222 26.53000068
4.73121121894375 1.60916814384007 16.32999992
1.02658991698093 3.84903581969336 34.8599987
3.18231964384792 1.47385906866867 18.27000045
3.92690392488233 4.37414503759681 26.54999923
2.87226467762601 1.54457803237272 18.25
2.50394472498619 1.47031681171448 17.82999992
2.15370056376956 1.44941375715503 17.52000045
2.90938827821181 4.30819036276452 25.6800003
1.8235510000503 1.47432171172733 17.36000061
4.87370528101101 2.16486320839938 17.89999961
2.16882291667687 2.72314486824119 20.92000007
2.61841850645017 4.42849391408384 25.76000023
1.60185618487022 1.81937866289231 18.07999992
1.74435024693748 2.37507372745161 19.65999984
4.33178669864291 1.40932269856671 15.53000068
1.87280612972985 2.86231631197808 21.07999992
2.03236658018323 3.47514312111968 22.80999946
1.72937743522085 3.51944703543913 22.70000076
1.86489913927275 3.980274570581 24.03000068
1.95114702099627 4.383442293811 25.19000053
1.26480903373093 2.95847129758401 20.90999984
4.70816318293051 2.78373007969571 19.40999984
0.94869764928655 3.05183173218915 20.9300003
0.00742931721295437 3.30549798661995 20.9300003
4.53555526359047 3.42901200037663 21.03000068
4.63584132458888 3.90063220363946 22.36000061
-0.591576614696456 3.48897334467629 20.95999908
-0.911725611289137 3.59742809321548 21.05999946
-1.20663953195491 3.61154337966682 20.86000061
4.20237749075997 3.46524069039947 20.89999961
6.87817409350725 2.7738276489755 35.3200016
1.74552788381407 3.45906977970291 39.1099987
6.37928598875673 2.34115357955986 21.80999946
5.98288967756712 2.12998739883595 21
5.67990053260474 2.1742913131554 20.88999939
5.0819040037324 2.35399309272823 20.97999954
4.67550712541621 2.05928011803743 19.90999984
4.77386784358464 2.41716489946525 20.95000076
4.64043971620223 3.15784241689319 22.82999992
4.15072970202957 2.56992356232389 20.94000053
4.45480302062437 3.73089827905777 24.20999908
4.59032472467628 4.19172581419964 25.53000068
4.45323283812225 4.4623673303535 23.75
3.58376297022291 1.666157356975 18.07999992
4.30430850485584 4.41444405190342 25.9300003
3.99122532952269 4.49648375105801 25.9300003
3.27711006608892 1.24042527002037 14.34000015
3.61189540671921 4.3424493149164 25.26000023
2.51706696446818 1.4212602914288 16.71999931
4.07592172139292 4.30078573724485 23.039999
3.32395384406879 4.45143213078517 25.34000015
2.25729522361172 1.54586548856121 16.86000061
2.96907390594115 1.30359707675739 14.26000023
3.80504654712863 4.46690029769592 23.289999
3.47489698340936 4.49180825226822 23.14999961
2.29675540530187 1.27741334890212 13.76000023
1.00286894560964 0.672519232609766 5.88000011
2.40681772164085 4.73581508041367 17.67000007
1.38917122642849 0.921421198168816 6.81999969
2.7600900919687 4.74539739952258 17.95000076
1.75345356692 1.01077673276111 7.31999969
1.67821565536015 0.687382225014493 6.39999961
3.08216443139136 4.7506780728184 18.20000076
3.42038921940724 4.69558149037799 18.27000045
3.74549176794113 4.68954142822326 18.5
2.80418605056986 1.07348589643947 8.21000003
4.09573592915775 4.71044448278271 18.77000045
3.19048833138871 1.32238786199852 9.14999961
4.38257462552692 4.72651782419949 19.05999946
3.50357150672186 1.24034816284393 9.11999988
4.69061078567468 4.66334601746247 19.07999992
4.82211357022712 3.80893307819952 16.85000038
4.11661561790616 1.12532528482042 9.26000023
4.992702683493 3.17119831448562 15.29999923
4.46484097304863 1.15377549634691 9.55000019
5.02887295898823 1.9475798583443 12.02999973
5.17734866868261 1.27158124246568 10.35999965
2.0773224006308 3.91174498337172 34.96000099
2.35516993291045 3.84049795233809 34.98000145
2.19056246727168 3.24653903561406 33.289999
2.70036707894169 3.88026889931511 35.30000114
3.1347468525635 4.43316941287362 22.76000023
2.62054946841733 2.96932938997589 20.89999961
3.01894589303225 4.50328320207165 25.289999
1.64393333739723 4.68540567966857 17.76000023
1.53052503691683 4.26284199669143 16.56999969
1.3910591839608 3.69582619668158 14.95999908
1.53145966935857 3.05001620867107 13.35000038
1.36584280068272 2.45983087043056 11.65999984
1.22940515683792 1.88149433497017 9.98999977
1.24437796855455 0.737121026982646 7
2.63630737138502 4.72441723778669 18.54999923
2.93535236744327 4.57392505859926 18.37000084
2.06221874037232 1.30767908394668 9.07999992
2.37530191570547 1.22563938479209 9.05000019
2.65214004494805 1.15816593224197 9.07999992
3.9185483108532 4.76818140187103 19.55999946
2.95311038383628 1.12140917488955 9.19999981
4.18235766385796 4.62848189080457 19.38999939
3.33638445554389 1.38163187589914 10.11999988
3.25004311057621 1.09974673147118 9.32999992
3.64744882480289 1.30713933371157 10.14000034
4.69401284776261 4.16689496680378 18.5
3.91529578995595 1.15234550871105 9.90999984
4.8867153646 3.56742405525461 17
4.30462627988603 1.38992673881956 10.84000015
5.02509704392361 2.92916122421113 15.4300003
4.89067820615296 2.34327753178371 13.75
4.6347758436053 1.36501878424726 10.98999977
5.05521090119639 1.7281842389709 12.21000003
2.3650957294417 2.71499253676814 31.98999977
2.21250763700367 2.19703325704398 30.53000068
3.03446079156509 3.96154920961079 35.76999855
2.31251330826956 3.03250119671291 20.87999916
2.72403197236648 4.51739848852299 25.09000015
1.75771549085432 4.62283904743758 18.32999992
