ply
format ascii 1.0
comment File exported by Rhinoceros Version 7.0
element vertex 1051
property float x
property float y
property float z
end_header
3.7528632304928 2.48929508091137 32.47899902
3.57976842923847 4.3359122190366 27.42299927
4.03780257652111 2.51932596903025 32.5959996
4.27227977570106 2.60744284420025 32.50799835
4.33311699187152 3.36956653792384 30.49800003
4.48846292346404 2.75532239737881 32.24700058
4.41468852133777 4.17071859636018 28.40799988
4.48786472700564 3.93166788432599 29.09899986
4.76768537842455 2.80402912237535 32.3100003
4.67447354666775 4.28292316674081 28.27699936
5.0571982373071 2.81911934099209 32.44900024
5.12107391181479 2.5036885904898 33.34099853
4.95483937984182 4.32789472436182 28.33400047
5.33299055762693 2.87903156811524 32.4670018
5.23177507837521 4.38407178410943 28.36500061
5.56746775680688 2.96714844328525 32.38400162
5.49727699477299 4.47760051761239 28.29300011
5.83868656427247 3.04200133991053 32.36300171
5.94944074553613 2.57342872701134 33.69299972
6.09961496781601 3.15047074291562 32.24000061
6.8683726289805 3.30817820549257 32.30499924
7.29364048437334 2.66626075147598 34.29699982
7.39693619989724 3.39644462977717 32.40700043
7.58429672146946 2.67761580271719 34.46399963
7.71046000126457 3.33309633350769 32.78200043
7.85894566357573 2.74126319721587 34.46599853
7.94166057125554 3.53868008827667 32.37399948
8.10485664489128 2.79202839863053 34.47400177
8.37721883057043 2.86314612788028 34.45699966
8.62999008116734 2.89150032504174 34.54699982
8.71369486160901 3.57892067125464 32.74199951
8.87361430605578 2.94973586120747 34.53800095
9.01692825905429 3.54918888136497 33.02099884
9.14711986994848 3.01711842308169 34.53000153
9.30758449615041 3.56054393260617 33.17800034
9.41833867741407 3.09197131970697 34.50099838
9.94118535726301 3.19891358086925 34.53999985
10.2044005172337 3.29991264912328 34.4330014
10.4594585242577 3.32079651153367 34.52699936
10.6655047735503 3.6085539485644 33.88699997
10.9754449348253 3.45014977694915 34.50200165
11.4971482364607 3.56082720548696 34.52400101
11.763793531072 3.65062077161438 34.44399918
12.0487328771003 3.68065165973326 34.5429982
1.10400564858947 0.25272504458459 1.56499994
-3.15122948331467 2.51650036120125 26.55900085
-2.89845823271775 2.54485455836271 26.65600098
-2.61809239954368 2.58982611598372 26.73000038
-2.31828913673908 2.57129982822065 26.9879998
-2.009338848226 2.5228922014533 27.33800018
-1.75313746298841 2.54004089648816 27.46699989
0.80534576399843 0.267516164972126 1.31499994
-1.49693607775081 2.55718959152302 27.5959996
-1.32633455307854 2.96073721719531 26.64000023
-1.22228713564454 2.6208369860217 27.61200035
-1.04825547633159 3.01317910956739 26.69299972
-0.98323642361035 2.69401319168957 27.5789994
-0.785040316360932 3.11417817782142 26.5959996
-0.52182515639027 3.21517724607544 26.50400055
-0.271340662220474 3.25100177798797 26.58199966
0.513577799385569 3.46267827477981 26.54300011
0.762918915341804 3.50223797406787 26.61399925
1.3076432867001 3.64447343256737 26.60299957
1.58686574166061 3.69318015756391 26.65000046
1.84207725413634 3.82032539744668 26.4879998
2.27534875702411 3.15226177180136 28.56499947
2.46042252216921 2.44090327949244 30.59299934
2.24372584334788 4.32319540041559 25.40300072
2.39693852396498 3.822682972094 26.85500038
2.51782960369898 3.21423247534262 28.55399979
2.72005404204748 2.44684647240069 30.74399841
2.6062614024466 3.99297352952576 26.53299988
3.0105567736919 2.35194014616952 31.19700134
2.7208373946544 4.57954435659923 25.02900017
2.85674589661639 4.02879806143828 26.5959996
3.2781919410651 2.33173716744903 31.42299927
3.04350822173021 4.48631472132548 25.49700058
3.5402637228222 2.43647140307859 31.31999863
3.29170595947288 4.52960958798907 25.54200066
3.67840596650807 4.2272105796854 26.61800087
4.12271957522799 2.45544633818546 31.65799988
3.9107499147126 4.42905916707885 26.22200096
4.23958232386291 3.03454683050787 30.17100037
4.37907446591729 2.57885641069269 31.49800003
4.18867548600785 4.37523968197855 26.54399956
4.27671560845201 4.08763179406242 27.37600029
4.39089992435635 3.60785367903662 28.7360009
4.47590158846328 4.39780023534636 26.67999924
4.95207628171119 2.41518992985909 32.30499924
4.71495230049747 4.47097644101423 26.63600052
5.1934137501725 2.48089580077589 32.28599823
4.96200666002659 4.51800647505336 26.6640004
5.47263620513301 2.52960252577244 32.33199966
5.28223722522357 4.3259857970583 27.39600075
5.72998096858417 2.54301605343176 32.46499908
5.53744873769931 4.45313103694106 27.21300018
5.99548288498195 2.63654478693471 32.38899887
6.28156560922382 2.66284050767805 32.49700058
6.1805036354238 4.27414210114462 28.11500061
6.53906387812668 2.78251541280975 32.34099853
6.41726759103087 4.35478864156356 28.0390004
6.6873430202829 4.43337670556438 28.00599945
7.06648407082987 2.87451700446989 32.4350003
7.30782153929118 2.94022287538669 32.41900146
7.57431332845082 2.92375506404174 32.61899841
7.82380794985876 3.06957614080218 32.39200104
1.29076797370328 0.710241704471781 4.43299997
8.69348990471997 3.11111162927685 32.83199966
8.77680300885819 2.73218303339048 33.90000046
9.03087114312037 2.86306344064878 33.71499908
9.25505793837827 2.98479682219859 33.51600159
9.82119948489081 2.8435413456182 34.25799835
10.1152858566276 2.8436908947328 34.43799866
10.366913729011 2.87578025926979 34.50799835
10.6691572536944 2.95604501422802 34.48100174
10.9196417478642 2.99186954614055 34.5390004
1.01497565338345 0.650329477348633 4.40300024
11.1977208246111 3.04431143851263 34.57100189
11.4436318059267 3.09507663992729 34.57900131
11.7171373698194 3.16245920180151 34.56700027
11.95504470364 3.23937057484492 34.50099838
0.514689526902317 0.256161113730923 1.153
0.227616929898586 0.339861937835492 0.732
-1.63376561242301 2.47036762184972 26.57300079
-1.38785463110746 2.52113282326439 26.60999954
-1.13737013693766 2.55695735517691 26.67899979
-0.87186822053988 2.65048608867987 26.61999977
-0.610939816996338 2.75895549168496 26.50199974
-0.547064142488654 2.44352474118267 27.39399994
-0.220963180772166 2.33908960378231 27.89399994
-0.0513515288617601 2.85263377430252 26.63699997
0.0559725177612215 2.39526666352993 27.93100059
0.339768485575972 2.42903271902434 28.03600014
0.462348125278698 2.98945737446907 26.62200058
0.593683114386449 2.45365174881026 28.14199913
0.715272881327316 3.1240729491029 26.42999924
0.875192325774079 2.49488813905574 28.22700012
1.48631729891893 3.27431007692878 26.54600037
1.75982286281164 3.34169263880299 26.54900063
2.29256827027917 2.34866945148619 29.56099976
2.32169790737334 3.42790058666948 26.7020005
2.45188951826753 2.8958301283862 28.21399963
2.58894139844308 2.34134866584972 29.77999962
2.58605644555756 3.52516448754797 26.61900032
2.88988803946124 2.31908721071112 30.04500092
2.60359879506443 4.53548591901423 23.92000092
3.10835794365134 2.4594964291386 29.81499947
2.82664221210877 4.66095446793958 23.73400009
3.08071034637095 4.79183487519788 23.54600037
3.94457491941591 2.39682901655903 30.53800095
4.22608413080353 2.4380654068045 30.61399925
3.99711730253645 4.57396712380328 24.72700012
4.31680268597827 3.20933612623657 28.59800041
4.44371766768348 2.79473254755227 29.80200088
4.42695867078353 3.91710900028456 26.76999939
4.59428356626682 4.43812350555583 25.48499954
4.68903045254063 4.02184323591411 26.6659993
5.19358308097261 4.18854817508494 26.54900063
5.43377717122036 4.25798921337728 26.51500023
5.70956949154019 4.31790144050042 26.52500046
5.99336545935494 4.35166749599483 26.62699974
6.26801440146121 4.41531489049351 26.63300026
6.56553090783868 4.40425893748151 26.84500015
6.83316607521188 4.38405595876102 27.07300079
7.29348697892164 2.55999937400361 32.27300156
7.12610906873512 4.38794067525116 27.25100029
7.54282809487788 2.59955907329167 32.31799972
7.397174370749 4.35653219440407 27.50700081
7.78873907619343 2.65032427470633 32.34500015
7.66480953812221 4.33632921568358 27.73499954
8.06567477472682 2.70650133445395 32.36899841
7.93831510201491 4.4037117775578 27.72799957
8.33216656388646 2.690033523109 32.57400024
8.62282280098258 2.7013885743502 32.73400009
8.91690917271937 2.7015381234648 32.92199982
9.20527865338836 2.72036350945707 33.0409993
9.46148003862596 2.73751220449193 33.15700043
9.72454169314492 2.73224989527358 33.33999908
10.0106244173868 2.75854561601692 33.4519986
10.2771162065464 2.74207780467196 33.65299881
10.5378911046383 2.74428583020468 33.80300034
10.8251172070937 2.76684638357249 33.92999924
11.1089131749085 2.8006124390669 34.00799835
11.4041429248588 2.79702682080596 34.20099914
11.6683479575913 2.78802934421208 34.38500107
1.80233437686832 0.960797016861775 6.13300026
11.9544306818332 2.81432506495542 34.49100006
1.65956560562496 1.53395431627593 4.50699985
6.35824078958402 1.66501948383511 2.23899997
6.17391872634903 1.30629386666922 3.07400024
-0.980420310776476 2.25776217967347 26.47700012
-0.487454969931808 2.35555741512727 26.55600059
-0.207089136757739 2.40052897274828 26.63099945
0.0721333182027699 2.44923569774482 26.68599976
0.343352125668355 2.52408859437011 26.67299927
0.866352310968999 2.73729223300476 26.45500076
1.30206407573559 2.16801965008074 28.27100075
1.3846254779637 2.85917516366917 26.47900093
1.53997140955622 2.24493102312414 28.22799957
1.79731617300738 2.25834455078347 28.36699951
1.92347945280249 2.91382508157397 26.69399918
2.07882538439501 2.29958094102894 28.44800079
2.36948162149112 2.31093599227015 28.60500038
2.13578777491809 4.35551700129868 22.97600067
2.45791342023873 3.08967704645328 26.57499969
2.64641732002451 2.36711305201776 28.63600052
2.36142495929296 4.68603797041771 22.24100006
2.93821693533418 2.37473293588343 28.81199921
2.66808849137892 4.64510067840143 22.55600059
3.2401534491142 2.24247493589691 29.36699951
2.94258392803348 4.60248669542774 22.84500015
3.26928308620837 3.3217060710802 26.50000084
3.51137225657978 2.3173278325222 29.34199989
3.25839448582793 4.53166806440719 23.25000084
3.55193567580956 3.35920729395015 26.59100044
3.76544039084196 2.4482082397805 29.16800011
3.50201871071636 4.58990360057292 23.25400055
3.79899003533867 3.40623732798928 26.62300003
4.32487517352484 2.43562514492568 29.56600082
4.3195499587605 3.52064992390262 26.65199936
4.46574886464453 2.93628712236187 28.32099998
4.40584850653269 4.4131226903092 24.32199943
4.46286391175901 4.12010294406012 25.1470002
4.89758580376374 3.66082690598401 26.6640004
5.15622745088016 3.77676664374017 26.51100052
5.41486909799658 3.89270638149633 26.36999977
5.66992710502062 3.91359024390672 26.48000038
6.47885650911144 4.04682822581234 26.64199913
1.51396489619933 0.941971630869504 5.97800005
6.7420716690821 4.14782729406636 26.54399956
1.25776351096173 0.924822935834648 5.85300005
7.01672061118837 4.21147468856504 26.5409993
7.29251293150819 4.27138691568819 26.55600059
7.5717353864687 4.32009364068474 26.60699928
7.91597689415045 4.04963444780346 27.55600059
8.09458206631764 4.42703590184701 26.6470002
8.15731436261176 4.11534031872026 27.53100098
8.43196330471804 4.17898771321894 27.52699936
8.67101401675222 4.25216391888681 27.48199928
8.93880268957713 4.3382223176387 27.41899956
6.01688423478779 0.751662855018142 4.45600021
0.98579300158604 1.92005414868417 3.01600016
0.749627242437371 0.663062121318051 4.18900001
3.8140604722699 1.11498572306088 7.94200027
0.617540551419517 2.26895185645167 26.56700027
0.900193141020707 2.30645307932161 26.65099991
1.15883478813713 2.42239281707777 26.52599991
1.44034399952476 2.46362920732325 26.59899986
1.98964188373729 2.59092399632061 26.62799919
2.24126975612065 2.62301336085761 26.70900047
2.33159663499192 2.3279351381904 27.56799972
1.99957226205269 4.69374054151488 21.00800026
2.15034468079097 4.09443707047199 22.70900047
2.31140750345129 3.46151709304929 24.51299942
2.44617262719973 2.91450596526388 26.07300079
2.75039589740686 2.77477763052629 26.65099991
2.86572359152477 2.29126434812496 28.01500023
2.57158420508473 4.64007060552919 21.52900017
3.01589781380465 2.86830636402925 26.57499969
3.13008212970899 2.38852824900345 27.93699921
2.82565233934691 4.77095101278749 21.34700096
3.43659215634325 2.2413295795148 28.53200043
3.08658074289045 4.87942041579258 21.23300064
3.71238447666308 2.30124180663795 28.55200088
3.99275030983715 2.34621336425896 28.6129998
4.27197276479766 2.39492008925551 28.66899956
4.36269131997239 3.16619080868757 26.66300095
4.47458887944961 2.69388302841285 28.00000084
4.23860827644946 4.74593437219245 22.34700096
4.44868285684118 3.84614082014941 24.89300049
4.59945527557946 3.24683734910651 26.60699928
4.57484613663629 4.50162135093991 23.21799934
4.72561855537457 3.90231787989702 24.93400085
5.11544168614704 3.376190614522 26.58899963
5.92566797390312 3.61195480652445 26.48400009
6.21289407635855 3.63451535989226 26.60800064
6.98393849395016 3.78475248771813 26.69999969
5.76296960597731 0.727043825232217 4.36600006
7.51722908317285 3.96433961997298 26.56099976
7.82846612811305 3.90846165845456 26.90899933
7.85232356514612 3.72376176609597 27.41700066
8.07453061488031 4.0654882373416 26.63600052
8.34117590949165 4.15528180346902 26.56899918
8.58708689080721 4.20604700488369 26.58700073
8.84786178889904 4.20825503041641 26.7379998
9.154525320985 4.16731773840013 27.04799927
9.41415684086328 4.17326093130838 27.19299972
9.69566605225091 4.21449732155386 27.25000084
9.96002459043514 4.31176122243235 27.15700043
0.975110921360538 0.887321712964705 5.7629999
0.295774931705515 1.39835875972299 1.90800012
5.48031701637612 0.689542602362275 4.27599991
5.18623064463933 0.689393053247675 4.08900011
1.461761174679 2.18013827224335 26.51999939
1.73869687321239 2.23631533199096 26.56300056
1.98117771988726 2.29828603553223 26.5600003
2.26040017484777 2.34699276052878 26.62300003
2.00726889864421 4.4550716149414 20.80300034
2.15575456095537 3.86323847864957 22.49499977
2.28693604461142 3.22117147551839 24.28699959
2.52003169472605 2.35293595343703 26.77599991
2.17672704510292 4.86235440798923 19.82799995
2.81526144467641 2.3493503351761 26.98499954
2.47996044254819 4.83262261809955 20.1129998
3.03944823993431 2.47108371672591 26.80000008
2.75559925741632 4.78627346775033 20.4159993
3.39299027877625 2.27700456231273 27.56099976
3.07255319342432 4.71171966935424 20.82099998
3.65391868231979 2.38547396531782 27.43999947
3.35520578302551 4.74922089222418 20.90899933
3.83824074555478 2.74419958248371 26.59899986
3.61598068111735 4.7514289177569 21.0789994
4.23164751641964 2.31312819245446 28.01699913
3.89733638705328 4.68640393053001 21.43800056
4.36794769468509 2.82873083939278 26.72399986
4.44211377311481 2.47968358251068 27.7039994
4.15468115050444 4.69981745818933 21.56700027
4.58070070780739 2.98781589469794 26.43599976
4.75548406903044 2.31007390876883 28.36800087
4.48992913792941 4.5655009817847 22.15099991
4.5538048124371 4.25007023128241 23.0390004
4.69771696189401 3.67317776449272 24.67700088
4.8599231627679 3.03652261969448 26.48300064
5.03813665863163 2.34757513163877 28.4520005
5.14028899594197 3.0814941773155 26.55700005
5.30249519681585 2.44483903251726 28.36600006
5.56685373500007 2.54210293339575 28.28299988
5.94350150896498 3.23340799609878 26.66300095
6.20442991250852 3.34187739910388 26.53999985
6.97433095188657 3.49584969430529 26.62399948
7.23525935543011 3.60431909731038 26.50400055
5.10749105335536 1.05338097963191 3.05999983
7.52591559252623 3.61567414855158 26.65600098
7.81314169498166 3.63823470191939 26.78399933
8.04190200309381 3.74502741396706 26.64000023
8.30397378485091 3.84976164959662 26.51999939
8.55217152259358 3.89305651626022 26.56099976
9.07616158065609 3.99626361004696 26.6110009
9.35195390097591 4.05617583717011 26.62300003
9.62431608665506 4.12729356641986 26.60200012
9.91039881089693 4.1535892871632 26.70600021
10.1871810039786 4.10350496943844 27.01199997
10.4342353635077 4.15053500347757 27.04399956
10.7054541709733 4.22538790010286 27.01100052
4.81096441973974 0.954440387796005 3.12399996
0.407910662034494 1.88613854407516 2.70499981
6.1753849408144 3.11647245107511 4.14200008
6.30801681358741 2.68319303551314 3.53100002
6.13169839784735 2.29832124671852 4.45299995
5.93350229059793 1.87815626058667 5.44799984
2.12143738920015 2.37390250307892 25.58599937
1.94262569687802 4.23919547808182 20.47900093
2.09454149382986 3.63615683966339 22.19500053
2.45668537662512 2.23958602667429 26.17899979
2.74734161372123 2.25094107791549 26.34100044
2.3983200730303 4.77903536934536 19.33700073
3.00811651181307 2.25314910344821 26.50899971
3.29076910141426 2.29065032631816 26.59100044
3.53324994808914 2.35262102985942 26.59100044
3.80660200653014 2.31374221426127 26.86699951
4.07782081399573 2.38859511088655 26.85699928
4.33287882101976 2.40947897329694 26.95699966
4.05375685680772 4.81598943229159 20.33800018
4.56080276182175 2.7325296076649 26.24599922
4.29982134357497 4.97301601117863 20.06899918
4.66981536841346 3.44403764908842 24.41000069
4.85717588998567 2.72520882202843 26.45799911
4.64520622947029 4.69882165092182 21.03100098
4.79140513535432 4.11445884938106 22.69399918
5.22771509657931 2.36884077950986 27.65499962
5.39602986482446 2.77985873993323 26.66100014
5.64880111542137 2.80821293709469 26.75700081
5.76870232239352 2.30975898519122 28.17000092
5.90972951896492 2.91668234009978 26.63
6.03992112985911 2.38461188181651 28.1470002
6.27668508546618 2.46525842223544 28.07499969
6.41313876918333 3.08712244664614 26.50400055
6.5467605147182 2.54384648623626 28.04200066
6.82369621325159 2.60002354598388 28.07099998
6.95786314054162 3.22935790514564 26.47499931
7.24737599942417 3.24444812376238 26.62099922
4.07749797774392 0.574681359105128 3.6589998
7.49671711538041 3.28400782305044 26.66199959
7.7736528139138 3.34018488279806 26.69299972
7.84210200127572 3.00981346279363 27.61699951
8.01384690416155 3.40962592109039 26.66000069
8.51268264152572 3.59500669713889 26.47799957
8.80448225683539 3.60262658100456 26.63600052
9.07455768608742 3.68121464500538 26.60100067
9.59854774414992 3.78442173879212 26.64799965
10.1008136161548 3.95859701271401 26.49700058
10.3467245974703 4.00936221412868 26.51100052
10.6350940781393 4.02818760012095 26.63399971
10.9177466677405 4.06568882299089 26.71600044
11.1981125009146 4.1106603806119 26.76299942
2.40346013164613 0.384967219222696 3.03899992
11.4739048212344 4.17057260773505 26.7739991
5.98747923748703 2.66269095856345 5.23400009
11.9818875843071 4.32607204477927 26.66499985
2.10365686884153 0.403493506985767 2.78899992
1.79928009318269 0.436960464250975 2.49599994
1.86868196395164 3.94693930275414 20.31600082
2.03203154303908 3.30654899058037 22.13900078
2.29355814304103 2.23867290663828 25.16899956
1.91038876139498 4.98508359680655 17.56499947
1.96283065376705 4.7070045200596 18.34500015
2.13647063677654 4.03299770150603 20.25899971
2.15858649913765 5.02837846347015 17.61900032
2.4365120704329 4.97455897836985 17.94399918
3.13793227175221 2.25612069990234 25.68400085
3.36669257986436 2.36291341195002 25.55000008
3.01065726444036 4.80715733016072 18.77299965
3.65262179865453 2.28294775522098 25.95799911
3.27501580262458 4.90442123103921 18.6850003
3.93512088280402 2.21418760061855 26.3289994
3.55195150115797 4.96059829078682 18.7190007
4.22234698525945 2.23674815398636 26.45500076
4.5061429530742 2.27051420948077 26.55700005
4.56141678362856 3.1575751175544 24.21200073
4.77736176053979 2.34536710610605 26.53600014
4.43291373270309 4.85852072803378 19.57599914
4.68643668521011 3.81679081572044 22.52299965
5.02784625470958 2.38119163801858 26.59899986
4.77700173493314 4.48180015768013 20.80300034
5.2749006142387 2.42822167205771 26.63099945
5.52195497376781 2.47525170609684 26.66499985
5.80689431979612 2.50528259421571 26.77100075
6.29658303145181 2.72054470926848 26.50599945
6.56437170427671 2.80660310802037 26.44999969
6.84473753745078 2.85157466564138 26.50999916
1.26515313664984 0.473631254316413 2.03499997
7.20140270003 2.43376725415685 27.85999954
7.38473489050313 2.90248941617065 26.72900093
7.46233110357354 2.54223665716194 27.74400032
7.62492898075088 2.97193045446298 26.68800056
7.70366857203485 2.60794252807875 27.71099937
7.86054955814439 3.05631216225745 26.60800064
7.94386266228261 2.67738356637108 27.68400085
8.13176836560998 3.13116505888274 26.58299911
8.21736822617531 2.7447661282453 27.67100037
8.41099082057049 3.17987178387928 26.63200081
8.68678314089031 3.23978401100243 26.64399994
8.91783020542958 3.33910638829904 26.51599968
9.71761258381191 3.50222570920893 26.58800018
9.95208978299186 3.59034258437894 26.49100006
10.4726497064137 3.70475518029229 26.50299919
10.7724529692183 3.68622889252921 26.74499977
11.0310946163347 3.80216863028538 26.59299934
11.3068869366545 3.86208085740852 26.60800064
11.5459376486887 3.93525706307639 26.55700005
11.7975655210721 3.96734642761339 26.61699951
5.68042402909761 1.63727930848046 7.78299988
12.0491933934554 3.99943579215038 26.68400085
12.3226989573481 4.0668183540246 26.66700066
12.5893442519595 4.15661192015202 26.5940007
0.968780008485929 0.480952039952881 1.80799997
2.02554712471277 2.79391794009617 22.63600052
2.17746292166461 2.19087930167775 24.35599983
1.89346043369492 4.39980767522979 18.24599922
2.05795339099592 3.75568219568049 20.08299911
2.454398620198 2.24705636142536 24.38900078
2.08121263157059 4.74732779026907 17.44299972
2.74261459541529 2.15962036994526 24.81499947
2.30898306692088 4.96411704716466 17.02299965
3.00681962814781 2.15062289335137 25.01599968
2.54117350967371 5.05970425708573 16.92000092
3.28245844301594 2.10427374300215 25.32499969
2.79867177857657 5.17937916221743 16.76599968
3.55024711584084 2.19033214175404 25.2720002
3.80317187188946 2.32494771638787 25.0789994
4.37289705849438 2.27874811515324 25.57300079
3.9701367417661 4.98239527323322 18.06400001
4.50134709471661 2.92675831119268 23.92599953
4.63268208382436 2.39095268553387 25.44599998
4.22306149781472 5.11701084786705 17.86999977
4.57247471480911 3.65526549853646 22.01299942
4.74382794139148 2.98872901473395 23.9140004
4.68247719416267 4.25677699511207 20.47499931
4.83896650396876 3.6387976871915 22.23199928
4.84637195500528 4.78899700250994 19.15700043
4.96284302733674 4.30174855273308 20.5409993
6.27424482358735 2.36646737951414 26.58000076
6.55918416961566 2.39649826763301 26.67899979
0.681553906030496 0.458391486585076 1.68100012
6.82239932958633 2.49749733588704 26.58199966
7.06831031090188 2.5482625373017 26.60599983
7.31765142685812 2.58782223658976 26.65199936
7.56013227353299 2.64979294013103 26.63600052
7.8393547284935 2.69849966512757 26.69299972
8.11057353595908 2.77335256175286 26.65799988
8.40237315126876 2.78097244561853 26.82099998
8.43423423579675 2.5701263816312 27.4140004
8.70545304326233 2.64497927825648 27.38799942
8.9801019853686 2.70862667275516 27.38900078
9.22372621025703 2.7668622089209 27.38300026
9.45134314015562 2.87739008834411 27.22399986
9.6505291201669 3.18755852962805 26.51899994
9.93775522262233 3.21011908299586 26.64600075
10.4594585242577 3.32079651153367 26.66199959
10.7203869278013 3.42926591453876 26.53699959
11.49371810182 3.57203270761357 26.62699974
11.7580766400042 3.66929660849206 26.52599991
5.63354552234163 1.79042117087736 7.34199989
12.2889269673481 3.75009269802559 26.63699997
12.5647192876679 3.81000492514874 26.64199913
2.16130212122306 2.13691026746285 23.37900055
1.69108248989472 5.06093230069935 15.22799957
1.74809789512104 4.76791255445026 16.05200088
1.92402463455765 4.08643540114562 18.00100029
2.08623083543153 3.44978025634738 19.80499924
1.95201089343826 5.16940170370444 15.11699951
2.69199894311523 2.11144497952402 23.79300011
2.95178396844521 2.22364954990464 23.67400063
2.49757163210671 5.09537923988366 15.67700088
2.79966165133842 5.06938261736952 15.94900024
3.11547220913287 4.99856398634897 16.35299957
3.38440426017133 5.08088721772532 16.3100003
4.11196865495084 2.17027871214815 24.58999908
4.35330612341215 2.23598458306495 24.56400001
4.55836249994293 2.63373856494359 23.64000023
4.66036133180157 3.26139623314795 22.02299965
4.54214868479814 4.92872533724752 17.47900093
4.77394745124751 3.95796360506933 20.22399986
4.94072716497564 3.30636779076896 22.08000076
4.7937765571815 4.96081470178452 17.54600037
4.86451250097054 4.62297294702902 18.49400032
7.69977792103907 2.30036389778823 26.55600059
7.9434021459275 2.35859943395396 26.5600003
8.20890406232528 2.45212816745692 26.48000038
8.48698313907223 2.504570059829 26.51199997
8.76506221581918 2.55701195220107 26.54900063
9.04771480542037 2.59451317507102 26.62500084
9.29591254316304 2.63780804173461 26.66199959
9.57513499812355 2.68651476673116 26.70699966
9.81875922301198 2.74475030289689 26.70699966
10.1014118126132 2.78225152576683 26.78699959
10.3484661721423 2.82928155980596 26.80499924
10.6587133443206 2.88340014313546 26.85200012
10.9265020171455 2.96945854188735 26.78800095
11.1564057034712 3.07251608655949 26.65199936
11.4184774852283 3.17725032218905 26.53299988
11.6723921140388 3.20186935197497 26.62500084
11.9217332299951 3.24142905126303 26.66199959
12.1940954156742 3.31254678051278 26.63799942
12.4710311142076 3.3687238402604 26.66199959
1.84168557783289 2.75397645534741 20.35400093
1.98887435647878 2.05961710895874 22.30600059
1.5313853909513 5.04881367853674 13.99699963
1.70045186110655 4.3897475294853 15.87600029
1.8695183312618 3.73068138043386 17.75400055
2.02943777570856 3.10149657038669 19.54600037
2.27610045893422 2.08217766232655 22.43100059
2.54846264461336 2.1532953915763 22.42700088
2.82410145948149 2.10694624122707 22.73400009
2.38033303251673 5.05132080229866 14.55399979
3.13419512620813 2.0548034470842 23.0770005
2.66771264042387 5.18014273313884 14.40200031
3.42142122866356 2.077364000452 23.20799911
3.69035327970202 2.15968723182835 23.16800011
4.00258019740409 1.99381272546203 23.81600082
4.49455566548689 2.20160450576374 23.58999908
4.08051507207471 5.04886471507143 15.6850003
4.59099111172943 2.95419938831813 21.63200081
4.74062015225415 2.35863108465077 23.32799995
4.34258685383181 5.15359895070099 15.58199966
4.69657358368045 3.67691293186825 19.76800049
4.86907018847638 3.00664128069021 21.67700088
4.59436823166687 5.29194969271035 15.36900032
4.83074051097048 4.30624729103002 18.1640004
4.98379968613588 3.69947348523606 19.88900078
4.94432663041643 5.0028146629514 16.36999977
5.10424607486319 4.37362985290424 18.15799988
0.340589027537723 0.611383799867379 1.03199995
6.50681111729523 1.92701253469781 2.61200011
11.6786383615134 2.75441283783227 26.66700066
11.9521439254061 2.82179539970649 26.64799965
12.2233627328717 2.89664829633177 26.6129998
12.5014418096186 2.94909018870385 26.65000046
1.8430513015498 2.1089378557621 21.02699936
1.62993826282085 4.08628585203102 15.58100021
1.79671797654898 3.43469003773065 17.43900001
1.9520639081415 2.82044589718562 19.18999947
2.17258239790697 1.99329721623514 21.55600059
1.62689980448363 5.16384029625689 12.69700039
1.72294357442271 4.85008623671202 13.60599983
2.43450067421237 1.99177007439232 21.73400009
1.92212955443398 5.16025467799596 12.90400017
2.68628205204742 2.13012081640169 21.53299988
2.18176107431226 5.16619787090421 13.06799972
2.48499447175754 5.13646608101454 13.35099972
2.77450733064009 5.15155629963127 13.49600017
3.07545397165825 5.12929484449267 13.76300037
3.86590416818358 2.01325213326111 22.62699974
3.36039331768656 5.15932573261154 13.85900009
4.12683257172712 2.1217215362662 22.51500023
3.64990617656912 5.17441595122828 14.02099979
4.35787963626639 2.22104391356281 22.3970002
3.93126188250504 5.10939096400138 14.37699974
4.67826370691508 2.13528461304013 22.84199989
4.21505785031979 5.14315701949579 14.4709996
4.67293849215073 3.22030939201707 19.92599953
4.80541685947204 2.68076859898272 21.46300018
4.49755693446928 5.07439686489336 14.83299911
4.92700662641291 3.35118979927537 19.74400032
4.78706979335184 5.0894870835101 14.99300087
4.91726140424603 4.55741662522682 16.50000084
5.04287950228598 4.04028683644568 17.9709996
5.07200913938015 5.11951797162897 15.09500015
5.14388846138275 4.77794104949794 16.05900085
6.25045622660593 1.80360246219058 2.77900017
12.4457921281092 2.59707133536763 26.51899994
1.66041779828353 2.91908739079232 17.73199928
1.92095452552361 1.96120785169814 20.4690007
1.38800259790114 5.1969254680614 11.44799984
1.57650649768691 4.47436147362587 13.51000011
1.72255189811925 3.78373729461274 15.45600021
1.88475809899313 3.14708214981451 17.26599968
3.0272469305402 1.97712850311938 21.16700066
2.48400459899568 5.24646262586245 12.05000008
3.25600723865234 2.08392121516706 21.02800072
2.74493300253922 5.35493202886754 11.92800034
3.00128789322852 5.47834210137477 11.77099979
3.8510402514073 2.06180930914306 21.48899925
4.14283986671697 2.06942919300873 21.65700043
4.44950339880293 2.02849190099245 21.97700012
3.97943727292629 5.05877531170132 13.54399956
4.69655775833205 2.07552193503158 22.00299919
4.20019393354351 5.19171419537774 13.33100021
4.73696767211012 3.01114001898715 19.5239991
4.8820231997806 2.43051238482193 21.17700088
4.45540544601925 5.3188594352605 13.15400017
4.84255014406114 3.73385356253727 17.66000069
5.0024695885079 3.10466875249011 19.44999969
4.71862060598991 5.41985850351453 13.05399979
4.9584230199342 4.42295059970759 15.88799942
5.12520273366233 3.77135478540722 17.7360009
5.06400549188522 5.14566414325771 14.01599968
5.23650209668115 4.47539249207967 15.92299927
6.1220061903837 1.15559226615114 4.42799986
1.76240080479376 1.94535406216 19.41199959
1.64975154340643 3.48774595190953 15.2020005
2.06792095866616 1.90815193751926 19.71799934
1.49723754999619 5.26713007727514 10.3459996
1.57254700663948 4.9143476530175 11.32999981
1.75304725893033 4.21792983021072 13.31599987
2.34142652255886 1.97553449939347 19.7190007
1.75473581889905 5.38680498240683 10.19999969
2.63078587598971 1.88436334053784 20.15499962
1.98463950522476 5.48986252707898 10.07099998
2.90413793443072 1.84548452493968 20.43800056
2.25928844733102 5.55350992157766 10.08499992
2.31744723077091 5.25675500795304 10.91499985
3.17177310180392 1.82528154621919 20.67800034
2.6058167114399 5.27558039394531 11.06099976
3.46700285175428 1.82169592795826 20.88499916
2.86659160953174 5.27778841947803 11.22599972
3.71306733852153 1.9787225068453 20.62399948
3.1675382505499 5.25552696433943 11.4850005
3.96827885099727 2.10586774672806 20.46200073
3.44904746193753 5.2967633545849 11.56299961
3.73741694260652 5.31558874057717 11.69299972
4.55972822365984 1.98869996535828 21.16100014
4.05665763504164 5.23356460743002 12.13
4.81265297970846 2.12331553999212 20.95600021
4.30599875099788 5.27312430671808 12.18300045
4.93652950307645 2.78626640553369 19.27100075
4.56220013623548 5.29027300175294 12.31200016
5.02137766173168 3.46995158437106 17.48700035
4.84828286047735 5.31656872249628 12.42399967
5.00591554849699 4.69485424720018 14.19299972
5.13610715939118 4.1627837889169 15.70099914
5.23482936206084 4.90790833672023 13.77500046
5.88607860208679 0.858687803411923 5.07000006
5.43092940768967 1.49145823172002 3.08100021
5.04856474265697 0.818829005894662 4.63099993
1.84274429064639 1.89641510081735 18.7379998
1.39981223099179 4.62453173956865 11.13
1.57802572685553 3.93558425151294 13.08899963
1.75280908807857 3.25784226558382 15.03100098
2.12066986194164 1.84259561571705 19.06799972
2.39059178574196 1.8149223022455 19.32199943
2.62163885028123 1.91424467954211 19.20099914
2.87570698454341 2.04512508680041 19.02599991
2.34748207522688 5.3721634111339 9.76199997
2.87162563874109 5.58163188239302 9.55599964
4.06333274817449 1.90211023203109 20.19999969
4.29094967807308 2.0126381114543 20.04699982
4.56216848553866 2.08749100807959 20.03200043
4.03493344898399 5.30453278756517 11.05800045
4.85724473003732 1.97764401234628 20.51599968
4.85077613705941 3.06640395869876 17.59800041
4.9752508568858 2.55300933729315 19.05399979
4.53262580813461 5.4936487309892 10.87800014
5.09226711097243 3.23837120708793 17.28999985
5.13168715198864 4.28398583589142 14.50800026
5.22887430014128 3.966496608971 15.42400063
5.19740489191675 5.24369161505761 11.97599972
5.33674352851942 4.68173981777006 13.57400024
4.76133864020153 0.796268452526856 4.50200022
4.51542765888598 0.745503251112192 4.47600019
4.24420885142039 0.670650354486907 4.49500025
1.36375348456461 4.31527641832072 10.96199978
1.5431103586419 3.62259376288947 12.93799961
1.71675034165139 2.94858694433589 14.85100067
2.00914815341947 1.77986134125438 18.18100059
1.39288312165878 5.39450755350401 8.09199989
1.66867544197861 5.45441978062715 8.11099995
1.95590154443404 5.47698033399496 8.24800003
2.17894496147839 5.60244888292031 8.0589999
3.1258844678098 1.86842686376819 18.69100082
3.36493517984399 1.94160306943606 18.65000046
2.780684738063 5.45166459517072 8.86700046
3.63371372543075 1.91766492334004 18.88900078
3.05632355293113 5.4053154448215 9.17600048
3.92894347538111 1.9140793050791 19.10400093
3.33440262967808 5.45775733719358 9.20900047
4.22417322533146 1.91049368681817 19.30900085
4.5285500009903 1.87702672955296 19.59800041
4.7676007130245 1.95020293522083 19.55499924
4.18220689302995 5.46399962833103 9.75300014
4.99438127561293 2.27698873696432 18.8289994
5.08608970354952 2.93826291154848 17.11900032
4.76450923998403 5.37671318596553 10.36799992
5.18824204085986 3.67218195722521 15.22000015
5.12003102434969 4.96264094185653 11.70299995
5.27080344308797 4.36333747081364 13.4140004
5.36609551111694 5.11966752074357 11.44499958
3.96727315288701 0.614473294739293 4.46599997
1.62587828102496 2.07105484743145 16.03399933
1.73221245488608 1.72368428150677 17.04500092
1.25741931070349 4.6626469842454 8.85900009
1.4011779547087 3.97949313998334 10.77500046
1.57253118129107 3.31295665618083 12.67600048
2.00442113511352 1.68854063328414 17.31799972
1.21550599310521 5.86719711923944 5.59899986
2.24004171250703 1.77292234107862 17.24599922
1.53245992911322 5.79264332084335 6.0129999
2.58100659099981 1.61993002779631 17.88699997
2.8750929627366 1.62007957691091 18.08000076
2.11605915973256 5.80788308857469 6.37300003
2.45687053277363 5.54862939782001 7.2890004
3.43452774541948 1.6074964820561 18.48499954
2.68677421909934 5.65168694249216 7.16499985
3.68173561040029 1.7607878935676 18.24499977
3.01043491893701 5.44846076237049 7.9140004
3.91621280958024 1.84890476873761 18.16700066
3.28165372640259 5.52331365899578 7.89399994
4.17485445669666 1.96484450649377 18.02800072
3.5608761813631 5.57202038399232 7.95800007
3.80450040625153 5.63025592015806 7.9510001
4.77430747685416 1.82153055349525 18.80200088
4.1340315026087 5.51461528063109 8.48200024
5.02494547647565 1.96361646288015 18.59100044
4.42926125255906 5.51102966237016 8.68799961
4.99804958110536 3.22587079946462 15.18100059
5.15110875627076 2.61909699367066 16.91300095
4.67532573932631 5.6680562412572 8.43000019
5.25669122822178 3.34181053722078 15.0409993
5.24564912238964 4.44551115307539 12.07999981
5.33239236116853 4.05537705506242 13.17899979
5.27233849760499 5.42595124553738 9.45900047
5.43225794205175 4.79676643549021 11.25699985
5.79034184305112 1.38496461790155 6.68099964
1.54606415157907 1.69121313150907 15.81499947
1.31679031240858 3.6145920935631 10.50800026
1.49271705184519 2.93311494025845 12.45800007
1.81026918431159 1.68221565491519 16.01599968
0.923177021388784 6.2883579126388 3.09099997
1.0122070165948 5.89075347987476 4.21799982
1.410939002224 4.37465731086856 8.54399956
1.27313542013834 5.99922288287985 4.09899986
2.67636749908043 1.62869526804409 16.74700058
2.93157901155617 1.75584050792686 16.57499969
2.14396075321312 6.03702320397899 4.58300007
3.19136403688615 1.86804507830748 16.44500053
2.44262063780416 6.02223208359145 4.82099998
2.71100750708746 4.93194499539616 7.92100037
2.68395810626547 6.08793795450826 4.80000008
2.95060340087681 6.17773152063568 4.74600017
4.59273268640139 1.77411873399542 17.62799919
4.85823460279918 1.86764746749837 17.55200088
4.24212307649019 5.58855505722037 7.17300022
5.06100422290284 2.27287178412809 16.5940007
4.44016567828791 5.90245866587985 6.45499981
4.54535647393547 5.5588232673307 7.45400036
5.18030723341658 2.9507633191718 14.85500038
4.80956150666799 5.54982579073681 7.64799965
5.27902943608624 3.69588786697512 12.91899956
5.10364787840479 5.54997533985142 7.84100044
5.38003839518302 4.43354208002738 11.01500023
5.45002263706196 5.16578443474669 9.0930003
5.62634105280203 5.55065622354132 8.1669997
0.190324601199768 6.33364439383742 1.36099995
1.55125168624012 2.10131797189643 13.59899986
1.67229627142583 1.59912885261743 15.02800072
1.3518591860739 4.03384395965894 8.29800022
1.96066575209482 1.6179542386097 15.17299927
1.02440832598891 6.38470869348128 1.78499997
2.22715754125446 1.60148642726474 15.3970002
1.27832295479939 6.40932772326721 1.89300001
1.39723428900968 6.02087031621165 3.0129999
2.51895715656414 1.60910631113041 15.57300079
1.67988687861087 6.05837153908159 3.10700024
2.10819319234093 4.33889964083913 7.9879998
2.7877357021509 1.58516816503439 15.8100003
1.95224906429001 6.12948926833134 3.08599985
2.06986351483504 5.63850565117894 4.48300016
3.08410883031482 1.57784737939792 16.03399933
2.2349016538912 6.16699049120128 3.17900026
2.34679921336843 5.69468271092655 4.5129999
3.37705182383805 1.58173209588806 16.21200073
3.65170076594432 1.64537949038674 16.22799957
2.845941961636 6.0925862419198 3.78299988
3.89776525271157 1.80240606927378 15.9690007
3.1398748279211 5.98647441356202 4.26000011
4.216852439695 1.61412055865425 16.69299972
3.43853471251213 5.97168329317449 4.49899996
3.69016258489549 6.00377265771148 4.57899988
4.78086073523211 1.5865967942973 17.13499916
4.98919374095188 1.86688389657697 16.51999939
4.2806220847962 5.99660142118961 4.9879998
5.12122741726649 2.60994996796217 14.6129998
5.27542997064545 1.99944099479268 16.35800064
5.22680988921751 3.3326635115123 12.74800003
4.9465445467919 5.74290913788249 6.09899986
5.33010560474141 4.06284738981349 10.8459996
5.20632957212188 5.85511370826311 5.97299993
5.45870914641534 4.8171189633253 8.92100037
5.62931067108761 5.2206665889976 7.94299972
5.7701843622073 5.72132856643378 6.68900001
0.0157635854800689 6.37008294755675 0.12900007
0.257101053941381 6.43578881847355 0.11000002
0.438744684445792 5.73563582829124 2.10500014
0.661549930638381 4.90101681258969 4.49399984
0.76201370798 4.4660607060703 5.72000015
1.50116539034681 1.62436190421016 13.83100021
0.660798228728278 5.97110092206449 1.62699998
1.2640414091331 3.6801484153653 8.16499985
1.44682841785107 2.97626025780745 10.17199982
1.78023433985562 1.56680725173433 14.17199982
0.937733927261666 6.02727798181211 1.66600001
1.50896251768679 3.84091016162787 7.90200031
1.77446443408458 3.93443889513082 7.82999981
2.36612032690209 1.5745766847146 14.54899967
1.64138787030486 5.65032517511235 3.14399994
1.75442880799565 5.17428222746209 4.49899996
2.62476197401851 1.69051642247076 14.40799988
1.90803316491621 5.74011874123977 3.08599985
2.01764396796631 5.27528129571611 4.40500009
4.07201925752787 1.5534447606097 15.73700035
4.32151387893581 1.69926583737013 15.51400078
4.58472903890647 1.80026490562416 15.41499985
4.91197337883652 1.69209460084826 15.92400063
4.10507119631464 6.14303651975685 3.46200026
4.49107251614297 4.56176581440916 7.95800007
5.03928003684519 2.34383996426324 14.26199997
5.19119583379703 1.74080132584481 15.97900093
4.34999230486834 6.30379826601943 3.19699991
5.18945425912506 2.92088198016752 12.81099976
5.33222303036842 2.34772468075337 14.43700016
4.64750881124581 6.29274231300742 3.41700018
4.7285351589569 5.92128405187212 4.46599997
5.24930160253367 3.79300221873901 10.51399982
5.43780550231944 3.07043822430349 12.57499969
4.96872924920465 5.99072509016445 4.43100012
5.5043596095577 3.81388608114941 10.61400021
5.55864356735021 4.81094353407094 7.97799957
5.52145726805787 6.10681437703522 4.48599995
5.64364523145714 5.60089009038068 5.91999996
5.72025157176569 5.35063387621989 6.63599956
5.90000012214644 5.72430016288791 5.74299992
0.255719504876064 5.47943642122219 1.7240001
0.767884104499504 4.553646246665 4.551
0.865071252652143 4.23615701974459 5.47100008
1.36655377205008 2.27763440946794 11.04800022
1.54575714067567 1.47869037656432 13.30100048
1.34865139693657 3.40374602957576 8.01300037
1.52457813637318 2.72226887627112 9.95900047
1.1651126863085 5.17771829660842 3.14200008
1.30574820657643 4.71829270941771 4.47299993
1.61186655690723 3.50474509782979 7.92699993
1.46049594171055 5.28039405581986 3.0760001
2.96915698715196 1.52631860706185 14.13699997
3.2300853906955 1.63478801006695 14.01000011
3.49787406352041 1.72084640881883 13.96399963
3.77236950017497 1.67823242584514 14.25699985
4.03314439826681 1.68044045137786 14.42300022
4.32380063536293 1.69179550261906 14.58499992
4.62703403280821 1.66206371272939 14.87399948
4.92226378275856 1.65847809446846 15.07599914
5.1284635375029 2.05249690897157 14.15200031
5.19805610307839 1.7183903215916 15.0940007
4.5533601214304 5.53267709570196 4.44400013
4.84217429310609 4.26889561727468 8.01899994
5.24204965694885 2.74906428089295 12.36200035
5.3732311406049 2.10699727776176 14.16600025
4.68165665220092 6.07442591426902 3.07799995
5.30746038597355 3.4962473051144 10.3970002
5.48567388183728 2.80729981705868 12.35500038
4.94258505574447 6.18289531727412 2.959
5.5912563537883 3.5300133606088 10.48900021
5.63509640220706 4.45442594243777 8.04100025
5.47572213951545 6.25622107205659 3.10599983
5.75897292557504 5.11737680797935 6.34099997
5.87255904502099 5.81394417990073 4.54499996
6.15650851828744 5.95397161286751 4.3629998
0.432943127977936 4.90048547801438 2.46800006
0.679759316655294 3.98742794742661 5.07700003
1.24168737592023 1.72468008877428 11.50699985
1.31029006873386 1.50057004624222 12.15700043
1.18277689057025 3.0915191118737 7.81400001
1.60307955680539 1.39819338525998 12.6310004
1.4722897494528 3.10660933049044 7.97000015
1.88001525533878 1.4543704450076 12.66299999
1.73321815299634 3.21507873349553 7.85900009
2.18096189635694 1.43210898986899 12.92699993
2.48991218487002 1.38370136310165 13.26300037
2.28365941542244 3.33863835511736 7.89900005
2.7874286912475 1.37264541008965 13.49499977
2.56402524859651 3.38360991273837 7.95900047
3.04706021112578 1.3785886029979 13.65200031
2.81107960812562 3.4306399467775 7.99900043
3.34114658286257 1.3787381521125 13.85299957
3.58248405132388 1.4444440230293 13.82999981
3.83426542915894 1.58279476503867 13.63199985
4.0974805891296 1.68379383329269 13.53299988
4.98873322459677 1.54809976415984 14.48099983
5.20850001245214 1.79103519268417 13.97200001
4.96123913276808 3.98669958769149 7.92600048
5.32208613189808 2.48760256460555 12.18599976
4.77770042214 5.76067185472415 3.051
4.92062269883506 5.29377593278237 4.39999998
5.42538184742198 3.21778644290674 10.29300011
5.06263976816831 5.79070274284302 3.16399992
5.51610040259671 3.98905716233881 8.28299988
5.23682493293296 6.28930624386109 1.94200004
5.49089306719514 6.42018665111939 1.75100005
5.86088709203363 4.89120828902918 6.09299982
5.74724795788444 6.54359672362662 1.58700002
5.99619739753722 5.51680748081541 4.49600017
6.14408486338997 6.10131983147076 3.0220002
6.39258961203605 6.35713745307911 2.50300014
1.40435409314922 1.40680907639316 11.49800003
1.6639856130275 1.41275226930142 11.6640004
1.60393174946396 2.78332645977638 7.94900024
1.87858069157023 2.84697385427506 7.97700012
2.52680729860736 1.4766987620293 12.07999981
2.79002245857802 1.57769783028332 11.98099983
3.20593676810744 3.20835614431747 7.89399994
3.45070437120943 3.26285651310766 7.90999973
3.72764006974282 3.31903357285528 7.94299972
4.00228901184909 3.38268096735396 7.9510001
4.46718342841309 1.54368371309441 13.19099987
4.72468169731595 1.6633586182261 13.03799999
5.02090132002817 1.54977645511726 13.5390004
5.3138443135514 1.55366117160739 13.72399986
5.30508896414637 2.64989145271094 10.77400005
5.40097922863375 2.22987601569369 11.9680003
5.30776739687695 3.70877006005914 7.93599976
5.50999183522545 2.94138405711721 10.12699974
5.16211367274807 5.46574318117154 3.13699997
5.60299714682731 3.70518444179821 8.13899982
5.93063316306081 4.66336307912159 5.78500021
6.07051698141865 5.27402160140568 4.22800005
6.20925742156292 5.88841529106531 2.67900026
6.42346082380219 6.25628793393968 1.82400001
0.751331627754498 3.43332827035084 4.6049999
1.13977320946165 1.95084860772445 8.8260001
1.56862470494688 1.40398702905364 10.58499992
2.11090881442635 1.44743144483183 10.8430003
2.10329684323488 2.53992655855984 7.91100014
2.37397046894531 1.44216913561348 11.02500046
2.93454862984175 1.42585087338313 11.45400036
3.18846325865222 1.45046990316906 11.54399956
3.46997247003985 1.49170629341453 11.62600029
3.76748897641733 1.48065034040253 11.85099972
4.05814521351344 1.49200539164373 12.0220002
4.31663335517816 1.50168375192752 12.16499985
4.83818315136184 1.50609980299296 12.49100006
5.13569965773932 1.49504384998096 12.71899975
5.3085879388387 1.89112114090219 11.77299965
5.27269852321163 3.2895181939633 8.00699985
5.44862526264824 2.60804104065866 9.94799984
5.5416305742501 3.37184142533965 7.95900047
5.509017787812 4.65277159880179 4.50099981
5.63502756215541 5.20199075211992 3.10800016
5.82795146934372 4.35822471070989 5.4970001
5.99626623758887 4.76924267113326 4.50699985
6.16359113307215 5.29025717640453 3.21900022
6.30903833704609 5.77597848433858 2.00199998
6.44793228264206 6.49663355147059 0.16900003
1.31585345434996 1.37563283189218 9.36700046
1.90730282701253 1.2584650505224 10.09100044
2.22449493387229 2.14399881675322 7.92899979
2.3947047822411 1.48119750032624 9.81599987
3.87070002654117 1.3570080315492 11.14000023
4.11203749500249 1.422713902466 11.11400021
4.37410927675959 1.52744813809556 11.01300037
5.23563407867418 1.4888684207266 11.68700016
5.17329345868352 2.86691294595263 7.94400013
5.32635263384892 2.26013914015867 9.67399967
5.49656248221772 1.59733782373169 11.56599987
5.46394969577963 2.87826799719383 8.10599983
5.60100157595518 2.32378653465735 9.67800034
5.72144796468249 2.99794290232553 7.95600021
5.81027143973356 4.84303289860794 3.06100023
5.98147116086423 4.07023503733305 5.24800003
6.08248011996101 4.80788925038531 3.33200014
0.428729640730339 2.77899309594244 3.87499989
0.770837897436673 2.6222656152846 4.53100002
1.07466949134035 1.41618833844775 7.95699966
1.42249463911449 1.24078502091224 8.67500008
2.5861094602608 1.17620868102915 9.62600029
2.68010464462452 1.83001252086224 7.94799984
2.81486976837295 1.28300139307682 9.49200046
3.07579817191649 1.39147079608192 9.38399971
3.31484888395068 1.46464700174979 9.34199989
4.2878265543358 2.23636636852565 7.92699993
4.55790198358783 2.31495443252647 7.88899982
4.78512723718295 1.35913336985041 10.60299957
4.80266958668982 2.36945480131667 7.90400017
5.0196044363629 1.44725024502042 10.5220002
5.32169445559462 1.42125362250628 10.7919997
5.45913801207363 1.93312110206907 9.50300014
5.5864446700823 2.58486646548404 7.83800018
5.91667445364633 3.7480975230011 4.94400013
6.15016178006442 3.94621094301902 4.55799997
6.26816790691291 4.52157626796589 3.09000004
0.623717958842425 2.56906015199112 3.59500015
0.717474972354383 2.26277642719731 4.48099983
0.88654144250963 1.60371027814587 6.35700024
0.969854546647841 1.2247816822595 7.42100037
1.09144431358871 1.89520288255214 5.71500004
1.28795186086941 1.14649271648788 7.85200012
1.54987013717481 1.14496557464506 8.04300011
1.83366610498956 1.17873163013947 8.14300049
2.16449408501199 1.16561720070935 8.40299976
2.43327263059875 1.14167905461333 8.64500034
2.71935535484062 1.16797477535667 8.76800049
2.91396782199766 1.49308388614275 8.02400005
3.01458510479098 1.16438915709574 8.97700012
3.27078649002858 1.18153785213059 9.10000027
3.55343907962977 1.21903907500053 9.18799961
3.78905965702328 1.30342078279501 9.11200035
3.96896171285573 1.7833484469354 7.95600021
4.10487021481772 1.23260215177446 9.5220002
4.40353009940876 1.21781103138692 9.75699985
4.70104660578623 1.20675507837492 9.98099983
4.98827270824166 1.22931563174272 10.1100005
5.24676084990638 1.23899399202651 10.25899971
5.42422264386001 1.6201306134456 9.34500015
