ply
format ascii 1.0
comment File exported by Rhinoceros Version 7.0
element vertex 933
property float x
property float y
property float z
end_header
1.93345109501831 4.16915610721448 31.5739639105408
2.14096599785877 2.58897364066224 27.2439658905408
1.67554625992079 4.10006082131653 31.6399658005408
1.85763715148609 2.50170743979887 27.2199638205408
1.38675850422026 4.04730408921103 31.6829650705408
1.60519122571642 2.39810268514305 27.2029655205408
1.13431257845058 3.94369933455522 31.6859634205408
0.845524822750056 3.89094260244971 31.7429626305408
0.574907982014954 3.81276185906905 31.7739684805408
0.282455503968457 3.87261899071987 32.1509673905408
0.0136328502152351 3.87254264233766 32.3839614705408
-0.244271984882289 3.80344735643972 32.4079635405408
-0.491259001324116 3.66533313302604 32.2749679405408
-1.23947314695933 3.2073955365444 31.6199615305408
-1.74982390782653 3.03469549599064 31.6289642105408
5.00551912409961 2.10118382673741 8.70896604054076
-2.26563357802157 2.89650492419475 31.6959655605408
-2.54170932808452 2.85283364957196 31.7579620205408
-2.7941552538542 2.74922889491615 31.7069671405408
5.08919695099923 1.66164619036783 8.08596494054076
4.08136013166682 0.787686259236579 4.41396406054076
5.21101079481157 1.24936492644639 7.56896665054076
1.08308281398923 5.25147077339047 7.21096494054076
1.58805101391079 5.18985762894888 8.12096479054076
7.01206913109061 3.9962270215141 25.8129661405408
6.74145229035551 3.91804627813344 25.8569648505408
6.45266453465498 3.86528954602794 25.9779670505408
6.12932913600548 3.9414852314712 26.4049651905408
5.84779447661468 3.93232342560627 26.6119659205408
5.68261475170837 3.54538982457778 25.7909667805408
5.56625981722388 3.92316161974135 26.8329665905408
5.30289607279851 3.88857580260128 26.9639671105408
5.16680508151333 3.40719925278189 25.8089645205408
4.64374231500855 3.22541375474542 25.8249633605408
4.00253042703739 3.34329565687407 26.6379669005408
3.7698205580684 4.09883924720121 28.8459670805408
4.08277257673766 2.20990392300114 23.6279647605408
3.83189179280324 2.99087152460344 25.8429649105408
3.48282698934975 4.12418691009416 29.1729667505408
3.77760809305359 2.26067559716924 23.9819648505408
3.17220359633783 4.20946805302013 29.6179664405408
2.91429876124031 4.14037276712219 29.6669662305408
2.63276410184951 4.13121096125727 29.8959663205408
2.90391538126006 2.32763312836537 24.8929641505408
2.35122944245871 4.12204915539234 30.1099670205408
2.62783963119711 2.28396185374258 25.0169647005408
2.28423373707147 3.38276777047543 28.2079665905408
2.19150862688025 3.70060608560598 29.1099670205408
2.25178567463321 2.51453396800976 25.9599654905408
2.10634200652759 2.98674871196423 27.3299644305408
1.98662774322596 2.40184375587123 25.8669669905408
1.71055199316301 2.35817248124844 25.9239662005408
1.44718824873764 2.32358666410836 26.1089637505408
1.10201721277674 2.5378202245831 26.9049651905408
0.862283292644641 2.44330092741 26.8889663505408
0.349603906120107 4.07425506813034 31.5729644605408
0.0916990710225821 4.00515978223239 31.6309631105408
-0.17891776971252 3.92697903885174 31.6319625605408
-0.4622466160852 3.83971283798836 31.6679656805408
-0.73832236614815 3.79604156336557 31.7409637205408
-1.0143981162111 3.75237028874278 31.8629653705408
-1.2959327756019 3.74320848287786 32.0939681805408
-1.54837870137158 3.63960372822205 31.9799621405408
-1.78811262150367 3.54508443104895 31.9709670805408
1.99132316873173 5.05556082464558 8.74296644054076
-2.28208665438733 3.26885598422158 31.6519668405408
-2.56541550076001 3.18158978335821 31.6129653705408
-2.83603234149511 3.10340903997755 31.6379669005408
-3.10664918223021 3.02522829659689 31.6749618305408
0.874537207988972 4.06532230741204 4.61096647054076
2.57256340247876 5.04846042510027 9.91496351054076
4.10563891720886 4.83819698050033 12.7339637505408
2.37688249888049 3.33375210909811 6.39596632054076
6.04572765748807 4.11220021408756 25.7679641505408
5.77511081675297 4.0340194707069 25.8619659205408
5.48632306105244 3.98126273860139 25.9589660405408
5.21570622031734 3.90308199522073 25.9749648805408
4.96871920387551 3.76496777180705 25.8279655205408
4.84690536006317 4.17724903572849 26.9989669605408
4.57082961000022 4.1335777611057 27.0909660105408
4.30746586557485 4.09899194396563 27.2469642405408
4.02593120618405 4.08983013810071 27.4929664405408
4.19889846607553 2.63860008909723 23.4989669605408
3.94255877281327 3.4540771594574 25.8299644305408
3.74439654679325 4.08066833223578 27.6989639105408
4.03917765049708 2.21715701931087 22.5479667505408
3.67194193207816 3.37589641607674 25.8539665005408
3.42106114814375 4.15686401767904 28.1169669905408
3.38861308570548 3.28863021521337 25.8789642105408
3.12681448311537 4.13861675433141 28.3399665605408
3.4215955868192 2.27510544140649 23.2219665305408
3.11799624497038 3.21044947183271 25.9039657405408
2.85073873305242 4.09494547970862 28.4549644305408
3.12734892179082 2.25685817805886 23.4199645805408
2.54557424936834 4.14571715387672 28.8569648505408
2.84581426240002 2.24769637219394 23.5669639405408
2.26949849930539 4.10204587925393 28.9409644905408
2.36791156397108 2.94323013410585 25.8469665305408
2.17520824727891 3.53531183812637 27.5369651605408
2.09729472323598 2.86504939072519 25.8669669905408
1.84484879746631 2.76144463606938 25.8169639405408
1.01482736029557 2.55232641720256 25.9009635705408
0.751463615870201 2.51774060006248 26.0749633605408
0.446299132186127 2.56851227423058 26.4519660705408
0.164764472795327 2.55935046836566 26.6399658005408
-1.68103401545741 3.85208127590601 31.5629623205408
4.59789511149284 4.76749837857602 13.6189658905408
-1.95165085619251 3.77390053252535 31.6079681205408
-2.22772660625546 3.73022925790256 31.6749618305408
-2.47291943571541 3.67021942948733 31.7409637205408
-2.74353627645051 3.59203868610667 31.7319686705408
-2.99598220222019 3.48843393145085 31.6759689105408
4.8233518841521 3.9683598620083 12.6169669905408
-3.26659904295529 3.41025318807019 31.6589629905408
4.9218412972 2.54072146310699 10.2539642105408
3.90129247223002 1.65767607449303 6.49796369054076
5.00551912409961 2.10118382673741 9.62996366054076
3.71076508443077 0.983748904745887 4.89096525054076
4.89229447328563 4.24810033441722 25.8749664105408
4.6035067175851 4.19534360231171 25.9279640005408
4.36377279745301 4.10082430513861 25.9269645505408
4.05860831376893 4.15159597930671 26.3029640005408
4.25520539795369 2.64043245027021 22.1199653405408
4.11522063917592 3.07813772546681 23.4419639405408
4.12457331599636 2.12454643169296 20.9479644605408
3.5828051958507 3.84994352120419 25.9429633905408
3.46645026136621 4.22771531636777 26.9679649105408
3.80669682667471 2.16623264837835 21.2759635705408
3.14857377204456 4.26940153305316 27.3789642105408
3.50699125231848 2.18249485378858 21.6059654005408
2.87795693130945 4.1912207896725 27.3799636605408
3.21820349661796 2.12973812168308 21.7199638205408
2.58371026628108 4.17297352632486 27.6089637505408
2.30763451621813 4.12930225170207 27.7089660405408
2.22972099217519 3.4590398043009 26.0109641805408
2.10790714836285 3.87132106822234 27.2079665905408
2.33359296616874 2.26571459039495 22.7959640305408
2.19906711671881 2.66891039683368 23.9689643605408
2.08271218223432 3.04668219199725 25.0369651605408
1.99933974886354 2.41092921335394 23.3949668705408
1.47238321486617 3.14822554033346 25.7989662005408
0.931149533395963 2.99186405357214 25.8319671405408
0.137469926156083 2.73189781215501 25.8259666205408
-0.12589381826929 2.69731199501493 25.9849670205408
-0.396510659004392 2.61913125163427 25.9279640005408
-0.68350422772304 2.64447891452722 26.2539642105408
4.37553044831299 1.07475617633743 6.44696501054076
5.12927985165825 1.22936165030798 8.27596357054076
1.10125372895466 5.22604676211532 8.14996412054076
0.885302329880254 4.53394867740275 6.48496702054076
2.01495299302501 4.99562734461256 9.67396620054076
1.12877732074053 4.24703145706631 6.45096662054076
0.732910958993736 3.88727788010374 5.00796583054076
4.10415012375581 3.68480197048899 23.7769668405408
3.92236462571934 4.20786473699377 25.2799651905408
4.28257629297515 2.19906245272765 19.7179649105408
4.16622135849065 2.57683424789122 20.8089645205408
3.62991214767284 4.26772186864459 25.7079665905408
3.34837748828204 4.25856006277967 25.8739669605408
3.68316514426269 2.23158686354812 20.2929656805408
3.05958973258151 4.20580333067416 25.9869659205408
2.78897289184641 4.1276225872935 26.0439651305408
2.51289714178346 4.08395131267071 26.1499641205408
2.19681483944369 4.20374192435456 26.7189643605408
2.09527149110748 3.59341295698641 25.1999633605408
2.0536997969954 2.87230248703492 23.3549659505408
1.65191643562751 4.15999430134956 27.0869644005408
1.98124518228032 2.16753057087588 21.5429656805408
1.39401160052999 4.09089901545161 27.0649650405408
1.26337951857266 3.57501299687436 25.8499648805408
1.14156567476031 3.9872942607958 27.0469634805408
0.992762677837556 3.4968322534937 25.8189666505408
0.87640774335306 3.87460404865727 26.9239662005408
0.456987905695201 3.30596129797451 25.8259666205408
0.186371064960099 3.22778055459385 25.7779662905408
-0.0824515887931231 3.22770420621164 26.0259635705408
-0.569172525367048 2.99507068562486 25.8289649805408
-1.40465287186563 2.82046193551591 26.0039642105408
-1.67526971260073 2.74228119213525 26.0099647305408
2.46182007408652 4.85407744399953 10.3209655605408
3.60433543963327 4.7871962611856 12.6079643005408
1.8955441232522 3.33543177350667 6.40796354054076
4.16015166210514 4.76192494667486 13.6809661705408
4.31128328468523 3.44873277270286 21.6549651905408
4.01860176149211 4.31505786561335 24.1179664405408
4.35518360445464 2.36618906138025 18.7439658905408
4.23882866997015 2.74396085654382 19.8509643305408
3.74252601142916 4.27138659099056 24.2399642705408
4.19000387954834 1.97925546035175 17.8089645205408
3.45007353338266 4.33124372264137 24.6999633605408
3.87392157720857 2.09904607203559 18.3929641505408
3.14490904969859 4.38201539680948 25.0279662905408
2.91788713520407 4.29658155711909 25.0229652205408
2.64727029446897 4.21840081373843 25.0129669005408
2.98931104675935 2.23502254074746 19.5589645205408
2.38390655004359 4.18381499659835 25.1769645505408
2.12600171494607 4.11471971070041 25.2279670505408
2.46078937092672 2.08774651146886 19.6169669905408
2.19173767202688 2.89413812434632 21.9209640305408
2.03537618526556 3.43537180581652 23.5289657405408
1.77903649200329 4.25084887617669 25.8699653405408
2.16654270589834 2.06949924812122 19.8219650105408
2.06110559006955 2.37825210576906 20.6669662305408
1.98655139484375 2.67066640962445 21.5369651605408
1.50841965126819 4.17266813279603 25.8709647905408
1.25051481617067 4.10357284689809 25.9209640305408
0.992609981073141 4.03447756100014 25.9369666805408
0.747417151613194 3.97446773258491 25.9689643605408
0.460423582894546 3.99981539547786 26.3129661405408
0.178888923503746 3.99065358961294 26.5269668405408
-0.0917279172313555 3.91247284623228 26.5119636305408
-0.344173843001031 3.80886809157646 26.4689643605408
-0.821771147901139 3.42911123847549 25.8059661705408
-1.30123898816533 3.24007264412929 25.7669647005408
-2.08766549909548 3.02370132895274 25.8259666205408
-2.37645325479601 2.97094459684723 25.8549659505408
4.57613582256365 4.63671359985428 14.3289649805408
4.64710164382569 4.18809050600198 13.6709640305408
4.72532056139745 3.78306233839027 13.1049659505408
4.22401708382186 3.73206161907554 21.2259643305408
4.06765559706054 4.27329530054575 22.8269660705408
4.49150364088645 2.04109764993997 16.6249664105408
4.35697779143652 2.4442934563787 17.7319648505408
4.15335665608866 3.10539409791495 19.6759651005408
3.76249111337647 4.32406697471385 23.2359664705408
4.23905771511677 1.93749289528416 16.5599639705408
3.49912736895109 4.28948115757377 23.3699653405408
3.92118122579512 1.97917911196955 16.9129646105408
3.18670978895729 4.2966579055013 23.6399658005408
3.59784582714562 2.05537479741281 17.3559654005408
2.91609294822219 4.21847716212064 23.6719634805408
3.29268134346154 2.10614647158091 17.7689636005408
2.63455828883139 4.20931535625572 23.8769653105408
3.04023541769187 2.00254171692509 17.7189643605408
2.31122289018189 4.28551104169898 24.3219650105408
2.76415966762892 1.9588704423023 17.8009651005408
2.07148897004979 4.19099174452587 24.2639663505408
2.47170718958242 2.01872757395312 18.2529647605408
2.09901256183566 3.21197643947686 21.6569640905408
1.91902125078106 3.81314360098009 23.3869636305408
2.13199506294937 2.19845166566999 18.9499633605408
2.01018121913703 2.61073292959143 20.1909644905408
1.87019646035925 3.04843820478803 21.4019668405408
1.868631318524 2.16386584852991 19.1229636905408
0.0880343486766139 4.11777364598871 25.7759635705408
-0.169870486420911 4.04867836009077 25.8019645505408
-0.415063315880857 3.98866853167554 25.8189666505408
-0.672968150978381 3.91957324577759 25.8469665305408
-0.943584991713483 3.84139250239693 25.8719642405408
-1.21966074177643 3.79772122777414 25.9309661705408
-1.49027758251154 3.71954048439348 25.9719665305408
-1.76089442324664 3.64135974101282 25.9489639105408
-2.01334034901631 3.53775498635701 25.9539649805408
-2.25307426914841 3.44323568918391 25.8819663805408
-2.50552019491809 3.3396309345281 25.8349654905408
4.84713440520979 3.37078107446883 12.5789649805408
3.48912573088189 1.13262825005085 5.70696714054076
4.19202711167684 1.25089189409054 7.38696363054076
4.48394515104789 3.07279333871228 18.0339668105408
4.30941274932114 3.63945103145763 19.7399642705408
4.08762069900785 4.32597568426904 21.6679656805408
4.569646210076 1.90489213608148 14.8929641505408
4.42420254197038 2.37710688003595 16.3109634205408
4.28421778319261 2.81481215523254 17.5499656505408
3.78245621532377 4.37674735843715 22.0769660705408
4.00814203312966 2.77114088060975 17.7069671405408
3.5300102895541 4.27314260378133 22.0119636305408
4.01928889693198 1.89565398183435 15.3779647605408
3.76294920366971 2.71113105219452 17.7069671405408
3.20846907788648 4.42744268422304 22.6939666505408
3.74321314686903 1.85198270721156 15.5009658605408
2.93964642413325 4.42736633584083 22.9739654305408
3.46167848747823 1.84282090134664 15.6979644605408
2.68174158903573 4.35827104994289 23.0149658005408
2.38749492400735 4.34002378659526 23.2119644005408
2.09870716830682 4.28726705448975 23.2709663205408
2.48621338220188 2.10591742643429 17.1679656805408
2.00262272929847 3.64242861836373 21.6469657705408
1.94833902954881 2.91223269092953 19.7469642405408
1.91768515409243 2.12210328346231 17.7349670205408
3.94324590825314 1.03467327567841 6.47696379054076
5.04747256012273 1.47818102792279 9.53396681054076
1.40462402565686 5.09717069294876 9.57396391054076
1.31758686994011 4.57403157806178 8.45796659054076
1.04338165524124 4.33964204468422 7.45696714054076
4.17660473847089 4.38957388664804 20.6079643005408
4.62954151591792 2.06293328725137 14.0949638205408
4.48955675714015 2.50063856244796 15.4319656205408
4.21504614891246 3.34153964408329 17.8109634205408
3.90052898840794 4.34590261202525 20.7469642405408
4.52253925825387 1.48711378864108 12.7339637505408
3.96260022314278 3.23793488942747 17.7619636305408
3.61353541968929 4.37125027491819 21.0919654605408
4.15373839799969 1.76128082914884 13.7519653105408
3.3210829416428 4.43110740656901 21.4939658905408
3.039548282252 4.42194560070409 21.6689651305408
2.7998143621199 4.32742630353099 21.6439636005408
2.52373861205695 4.2837550289082 21.7909667805408
2.9639633838664 1.94802897202881 15.2299659505408
2.1949443040796 4.39446018310933 22.3079650705408
2.68063453749372 1.86076277116544 15.2709663205408
2.43700684986903 2.68532529900833 17.6499641205408
2.00613475488002 4.06746006211386 21.6359641805408
2.38638787246534 1.84251550781781 15.4269645505408
1.92096813452736 3.3536026884721 19.7839668105408
2.14665395233324 1.74799621064471 15.4119651605408
1.8776022534334 2.55438782352216 17.7249648805408
1.7542232677858 2.08209673118549 16.5859649405408
0.999939425765078 3.8092498334875 6.38296583054076
2.91406971609368 4.94684072838185 12.4489639105408
1.24341441662535 3.52233261315106 6.40596464054076
4.31830733584834 4.29879566020311 18.9769637905408
4.63671826384544 2.37535086724517 13.6789634505408
4.46764477144655 2.90749909123266 15.2209670805408
3.98405411854314 4.44401028316211 19.6669662305408
4.64061203133803 1.45626904222918 11.2769668405408
3.70797836848019 4.40033900853932 19.7649658005408
3.41373170345181 4.38209174519168 19.9879653705408
3.92851067048705 1.75395138445691 12.6219642405408
3.07222538983688 4.4837114419101 20.5209663205408
3.6524349204241 1.71028010983412 12.7119644005408
3.37635917036115 1.66660883521133 12.8609664705408
2.85822087450877 3.33207244468954 17.7249648805408
2.47827315045228 4.4817263839727 21.0219657705408
2.56943311880824 3.27931571258403 17.7669647005408
2.24945704897588 4.31818814928386 20.8179633905408
2.00426421951593 4.25817832086863 20.8839652805408
2.07179436357862 3.11570112951299 17.7839668105408
1.85000231326533 3.8022257823244 19.7439658905408
2.16841324126243 1.87878098936645 14.4629638505408
1.80663643217137 3.00301091737446 17.6709640305408
1.89600221354545 1.72249585098734 14.2329643005408
1.7741883697331 2.13477711490879 15.4629638505408
1.69238107819758 2.3835964925236 16.1529662905408
3.24106983708915 4.75803117918227 12.7519653105408
1.51231341876078 3.25358630778005 6.47196653054076
4.22924694800308 4.50402011157734 18.4729659805408
4.87855176448825 1.47268394440383 9.96696546054076
4.75673792067591 1.88496520832528 11.2059638805408
3.95863010726798 4.42583936819668 18.5459640305408
4.6243116517367 1.29097479474957 9.68896559054076
3.76256746175867 4.05524432096063 17.7019660705408
4.26096970081037 1.53063236649946 10.6729667505408
2.77072562849877 4.42186925232188 19.5349662605408
2.5073618840734 4.38728343518181 19.6909644905408
2.24945704897588 4.31818814928386 19.7059638805408
1.96066929327535 4.26543141717836 19.8069656205408
2.4645304416549 1.70630999395932 12.5959670805408
1.89913249721596 3.49164056350358 17.8129661405408
2.18120159528222 1.61904379309595 12.6699645805408
1.83213679182873 2.75235917858666 15.9099662605408
1.89241383958169 1.56628706099044 12.7279670505408
1.75242908080392 2.00399233618704 13.9909637205408
1.6069854126983 2.47620708014151 15.3769653105408
1.53453079798321 1.77143516398246 13.5559661705408
4.4035503045832 4.74383038009165 15.1529662905408
4.23104113498496 4.58212450657579 14.5219657705408
4.52715833537743 4.40965351116865 16.7749641205408
4.93829437356576 2.16837040308016 10.5749633605408
4.71104341392461 2.88940452464944 12.6339652805408
4.18019311243465 4.54578267664494 17.4809654005408
4.91855831676507 1.3092220580972 8.32096556054076
3.89865845304385 4.53662087078002 17.6879661405408
3.60987069734332 4.48386413867451 17.7699668705408
3.37013677721123 4.38934484150141 17.7549636605408
3.997605956385 1.49604654935938 9.60096433054076
3.7160712969942 1.48688474349446 9.77596357054076
2.8306972827229 4.31108774973855 18.0169647005408
3.45816646189668 1.41778945759652 9.84796598054076
2.58371026628108 4.17297352632486 17.8119666805408
2.20219740038933 4.43805510934991 18.8459670805408
1.9134096446888 4.38529837724441 18.9309661705408
1.78823647205932 3.83490288990928 17.5839660405408
1.75758259660294 3.04477348244206 15.5429656805408
1.91783785085684 1.58445797595587 11.5559661705408
1.70329889685328 2.31457755500786 13.6569640905408
1.56331413807551 2.75228283020446 14.9199645805408
1.56174899624025 1.86771047394634 12.5989654305408
4.66699039739079 4.5095935434785 15.2839668105408
4.71253220737766 4.04279953466078 14.5449645805408
4.39996193061944 4.58762159009474 16.3609664705408
5.20742242084781 1.09315613644948 6.45196607054076
5.00926019482779 1.71974730922787 8.22396543054076
4.10571526559107 4.56937432674711 16.5399635105408
4.93680558011271 1.01497539306883 6.43596342054076
4.31009988476101 1.22004714767864 7.51196363054076
4.06311286831918 1.08193292426496 7.36396482054076
2.95048789440674 4.62717005207832 17.6169669905408
2.69804196863707 4.5235652974225 17.6019637905408
2.40925421293654 4.470808565317 17.7069671405408
2.11500754790816 4.45256130196937 17.9139640605408
2.75885345506548 1.45573460355373 9.48296430054076
1.86802053146634 4.31444707855568 17.7689636005408
2.48277770500253 1.41206332893094 9.58996656054076
2.20670195493958 1.36839205430815 9.67096403054076
1.5831265432584 3.3426085214342 15.4049651905408
1.94879711984206 1.2992967684102 9.69696501054076
1.55247266780202 2.55247911396697 13.3469665305408
1.53273661100133 1.69333076898401 11.1079643005408
1.36366311860244 2.2254789929715 12.6499641205408
1.28029068523166 1.5897260143282 11.0429656805408
4.6910019635951 3.10554679467937 12.7649658005408
4.97807188069596 2.8113764780332 9.93396452054076
4.37087319699832 4.68206453888564 15.3249633605408
5.32557154231419 0.793488736284362 4.29196623054076
4.1129683619008 4.61296925298769 15.4129646105408
5.05495470157908 0.715307992903704 4.29196623054076
3.83689261183784 4.5692979783649 15.4789665005408
4.69886584696249 0.998560490894176 5.38296583054076
3.55715213942893 4.63824056749843 15.9299667105408
4.47550865481394 0.800512787447468 5.05496671054076
4.33006498670832 1.27272753140193 6.42496565054076
4.07761906093864 1.16912277674612 6.36096647054076
3.78883130523811 1.11636604464062 6.46096494054076
3.51275555517516 1.07269477001783 6.59296491054076
3.22942670880248 0.985428569154455 6.59096601054076
2.11680173489004 4.53066569696782 16.8189666505408
1.83526707549924 4.5215038911029 17.0259635705408
1.75189464212846 3.88575091245959 15.4419639405408
1.65916953193724 4.20358922759014 16.3769653105408
1.54124945561749 3.6967886664956 15.1469657705408
1.97601531809909 1.39557207837408 8.71796491054076
1.53422540445438 2.84672577899535 12.9329650705408
1.49631843268827 2.01300144528755 10.7029655205408
1.37996349820378 2.39077324045112 11.8339660405408
1.34751543576552 1.52253943798544 9.53796461054076
4.78739179613229 2.6750946157925 12.1819656205408
6.58997710005548 0.0455036357957761 0.0259635705407608
5.00521373057078 3.1764744417503 9.65496519054076
4.4979932533741 4.77291911371277 14.2099654905408
5.56179343686473 0.46297658970734 1.97796705054076
4.20920549767357 4.72016238160727 14.3469665305408
5.28571768680178 0.41930531508455 2.13496473054076
3.92767083828277 4.71100057574235 14.5939643605408
4.98055320311771 0.470076989252653 2.53596571054076
3.62796526392654 4.72726278115258 14.8559654005408
4.65901199145008 0.624377069694363 3.19296339054076
3.35914261017332 4.72718643277037 15.1119659205408
4.34838859843816 0.709658212620335 3.67796400054076
3.07214904145467 4.75253409566332 15.3919647005408
4.00867647180511 0.889382304337201 4.43296507054076
3.81776734209482 1.55956840335617 6.40096357054076
2.83241512132258 4.65801479849022 15.3579643005408
3.54715050135972 1.48138765997551 6.43496397054076
2.55088046193178 4.6488529926253 15.5559661705408
3.28199256995247 1.36869744783698 6.33696440054076
3.01137572921737 1.29051670445632 6.33696440054076
1.94601040389148 4.71588687220364 16.2699668705408
2.74621779781011 1.17782649231779 6.25496366054076
1.70994120610535 4.50875371127422 15.8759658605408
2.48285405338474 1.14324067517772 6.40396574054076
1.59748003911344 3.9674436814218 14.6139648205408
2.20677830332179 1.09956940055493 6.48696592054076
1.54319633936379 3.2372477539876 12.7059638805408
1.94887346822426 1.03047411465698 6.51996687054076
1.36007474463868 2.0692702029746 9.75096586054076
1.27826745310316 2.31808958058941 10.4729659805408
1.25853139630247 1.45894123560645 8.20996549054076
3.16758451921427 1.28692833049256 6.33496549054076
6.56260620503403 0.486873633338342 -0.0120346294592433
6.29198936429893 0.408692889957683 0.0229652205407622
6.03408452920141 0.339597604059738 0.0679633905407617
4.91420645897924 3.84123980563252 10.2209670805408
4.60514820780257 4.81109330481661 13.0429656805408
7.31395063433976 2.71395594233621 31.7129638505408
3.99848396278039 4.80002278939649 13.5199668705408
4.50959820746966 2.28449629241804 6.52396467054076
4.24444027606241 2.17180608027951 6.44296339054076
3.98653544096489 2.10271079438156 6.49196699054076
2.54355101723984 4.87408072013794 14.9239662005408
2.31473491576344 4.7105424854491 14.7119644005408
2.6516221522548 1.68638306620311 6.49396589054076
1.70807067074126 4.69947197002899 15.1819656205408
2.3810053115197 1.60820232282246 6.48696592054076
1.60652732240505 4.08914300266084 13.6459663205408
2.32672161177005 0.878006395388257 4.64996412054076
1.46497742179202 3.64227592159932 12.6299636605408
2.08519350465607 0.705382703216705 4.39596632054076
1.47433009861246 2.68868462782546 10.0969665305408
1.26914382142934 2.4652129131036 9.72096708054076
1.19668920671426 1.76044099694456 7.92396620054076
1.0896869490502 1.18462149833428 6.46396711054076
0.80635810267752 1.09735529747091 6.44096449054076
4.87832271934163 2.2791519056635 11.6649635105408
8.03681711708202 2.88489997009919 31.5839660405408
7.62613916918693 3.51324715566835 31.8649642705408
4.87763558390176 4.69855578944249 11.3069656205408
2.34031162380301 4.19106809290808 24.9409644905408
5.13786904465662 2.96399689406634 6.50896528054076
4.89813512452452 2.86947759689324 6.46796491054076
4.20912914929136 4.98898503536049 12.6359641805408
4.66386011372027 2.74044883096227 6.38696363054076
3.96939522915926 4.89446573818739 12.6359641805408
3.71149039406174 4.82537045228944 12.6859634205408
3.41178481970551 4.84163265769968 12.8999641205408
2.27659889885071 4.68328611300096 13.5169647005408
1.94780459087336 4.79399126720209 14.0339668105408
1.69715285208556 4.76849090754472 14.2099654905408
2.27736238267278 1.99505957546874 6.43196562054076
1.59560950374935 4.15816194017657 12.6819656205408
1.45016583564373 4.63037668413104 14.0349662605408
1.3831701302565 3.89109529921413 12.1569640905408
1.35072206781824 3.02286149674845 9.85496595054076
1.76731701533441 0.747068919902095 3.53796461054076
1.16191251861866 2.69586137575299 9.19696501054076
1.52578890822044 0.574445227730543 3.29196623054076
1.41489288306379 0.917707554136247 4.31696394054076
1.0658280796103 2.05102293962697 7.55096510054076
1.14427604232869 0.839526810755589 4.26796415054076
0.917025082687544 1.56056093232487 6.41796568054076
0.873659201593585 0.76134606737493 4.30996397054076
0.780934091402364 1.07918438250548 5.21296385054076
0.599377638512514 0.795779187750591 4.66296461054076
4.92115416176013 4.96012534688599 10.9119651605408
5.13412797392844 3.34543341157588 6.48396375054076
4.62690749673176 4.94187808353835 11.1179664405408
4.86351113319334 3.26725266819522 6.50896528054076
4.31448991673795 4.94905483146587 11.4219634805408
4.58018228682066 3.17998646733185 6.46796491054076
4.01478434238173 4.96531703687611 11.6759651005408
3.72779077366308 4.99066469976906 11.9719665305408
2.90135771045611 4.93775527089914 12.5319640905408
2.61256995475558 4.88499853879363 12.6629646105408
2.34195311402048 4.80681779541298 12.7119644005408
1.7243710503426 4.8647662175086 13.3199661005408
1.51372586383162 4.67580397154461 13.0339668105408
1.37061082138334 3.34436453422497 9.64796522054076
1.07300482753782 2.36344051962077 7.26096418054076
1.30235536768968 0.645220178037057 2.55396345054076
0.876942182028514 1.99284547238472 6.44996336054076
1.06628616990355 0.438087017107636 2.24396589054076
0.711762457122211 1.60591187135622 5.58896711054076
0.586589284492729 1.0555163840211 4.22096708054076
0.445039383879701 0.608649302959581 3.22796705054076
5.05919203679161 4.98196098419738 9.74496534054076
4.74856864377968 5.06724212712335 10.2299659505408
4.89244717005005 3.71045502691077 6.50696638054076
4.17278731936051 5.0398330579108 10.5989654305408
4.09151446650044 3.40689385925306 6.39296415054076
3.82635653509319 3.29420364711453 6.38496473054076
3.53756877939266 3.24144691500903 6.47596433054076
3.2724108479854 3.1287567028705 6.38596418054076
2.39638951053455 4.99936841534073 12.0129669005408
1.80969036745967 5.04097828364391 12.6459663205408
1.54453243605242 4.92828807150539 12.5649650405408
1.40844144476724 4.446911521686 11.4489639105408
1.30510390944915 3.7584781593194 9.72796705054076
1.05475756419019 2.65768718464915 7.02196577054076
0.842318190697334 2.3906205436867 6.49696424054076
0.717145018067852 1.84022505635158 5.08696440054076
0.842852629372788 0.50886196741415 1.49496534054076
0.5465063838337 1.48780092408095 4.29996565054076
0.619495437224237 0.310814263967443 1.19196394054076
0.397703386910942 0.997338916778852 3.15196684054076
0.248900389988185 0.506876909476751 2.02896574054076
0.192822503256648 -0.301423412955899 -0.0620338594592407
5.00288510491345 4.9801286230244 8.50396421054076
4.36346740392417 5.1761149201515 9.62896421054076
4.44370955362444 4.04272318627857 6.51196363054076
4.08739165386122 5.13244364552871 9.69496610054076
3.8294868187637 5.06334835963076 9.76096418054076
3.5479521593729 5.05418655376584 9.98196485054076
2.32603447633018 3.29741027916725 6.34396436054076
1.80243727114994 4.99738335740333 11.2979667505408
2.06812964123265 3.22831499326931 6.41796568054076
1.52636152108699 4.95371208278054 11.4219634805408
1.77934188553212 3.1755582611638 6.51696470054076
1.31392214759414 4.6866454418181 10.8799636605408
1.21783770858578 4.04180700569208 9.22496488054076
1.24356711338977 2.98468730564462 6.46096494054076
0.94932044836139 2.96644004229698 6.69396665054076
0.640796635860177 2.05453496520852 4.49396589054076
0.386785568255245 1.06635785429459 2.08296659054076
0.343419687161286 0.267142989344653 0.0679633905407617
0.0600908407886062 0.179876788481281 0.069966100540761
-0.205067090618647 0.0671865763427535 -0.0200340494592406
5.57164237816952 4.15747480473671 4.47396543054076
4.92833090968765 5.27254292687979 7.99696424054076
4.64679625029686 5.26338112101487 8.16496351054076
4.36526159090606 5.25421931514995 8.41296461054076
4.05127886907699 4.37682370681935 6.36296537054076
2.91399336771148 5.21566338213507 9.54896620054076
2.65608853261395 5.14656809623713 9.58796385054076
2.39818369751643 5.07747281033918 9.65396574054076
2.12756685678132 4.99929206695852 9.63796690054076
1.24482686169619 4.94455027691562 10.2059638805408
1.14328351335999 4.33422130954747 8.70596388054076
1.13625946219688 3.48415842204722 6.49896696054076
0.883813536427205 3.38055366739141 6.42596510054076
3.02324790265066 4.25665135322447 26.4729659805408
2.13707223036618 3.50805546567823 23.2999656505408
3.50279209129706 4.17686729381745 27.3329665905408
5.53701838683834 4.55524987603869 4.20196607054076
5.27521978424822 5.40523641515673 6.67096403054076
4.36339105554197 5.44493757390472 7.52496412054076
4.11640403910014 5.30682335049104 7.40296629054076
3.68606638278658 4.80719953732402 6.48496702054076
2.09481340081423 5.20634887950574 8.80996397054076
2.09870716830682 4.28726705448975 6.45496443054076
1.82809032757172 4.20908631110909 6.45596388054076
1.26112724129753 5.10984452439524 9.30296400054076
1.11411843135665 4.69748691209159 8.35196379054076
1.04166381664157 3.99271499593254 6.53996351054076
0.876484091735268 3.60578139490405 5.68796614054076
5.71132174341846 4.795060144553 3.26796415054076
5.46044095948404 5.5760277461553 5.54796675054076
5.15348228881809 5.54869502532495 5.70396498054076
4.87194762942729 5.53953321946003 5.89396360054076
4.05097347554816 5.45211432183224 6.42096403054076
3.79306864045064 5.3830190359343 6.46396711054076
3.49336306609441 5.39928124134453 6.71796491054076
3.25183495898044 5.22665754917298 6.51196363054076
2.71606018683808 5.03578659365379 6.44596556054076
2.45815535174055 4.96669130775585 6.47996595054076
1.83144965638886 5.17176306236566 7.51496580054076
1.52628517270478 5.22253473653376 7.92496565054076
1.25746251895156 5.22245838815156 8.16596678054076
0.99230458754431 5.10976817601303 8.10696485054076
0.883508142898374 4.4558442824043 6.44296339054076
0.776505885234318 3.88002478379402 5.05896452054076
5.71834579458157 5.64512303205324 4.36896589054076
5.38229839029449 5.71223326001379 4.79596403054076
4.55407114010563 5.58121943614542 5.14896467054076
3.45156232683571 5.48463873265271 5.86396482054076
3.12822692818621 5.56083441809597 6.33296659054076
2.85761008745111 5.48265367471531 6.34996488054076
2.59970525235358 5.41355838881737 6.43996504054076
2.34180041725606 5.34446310291942 6.47496488054076
2.08935449148638 5.24085834826361 6.41696623054076
1.17931994976201 5.35866390201005 7.45196607054076
1.01959913418355 4.93722083222368 6.48396375054076
0.681986588061217 4.11975870392611 4.60896375054076
5.57297847485815 5.84851512225449 3.80296400054076
5.27327290050193 5.86477732766472 4.10796430054076
5.00265605976683 5.78659658428406 4.14996412054076
4.70115629842872 5.72475439469585 4.26196363054076
4.43053945769362 5.64657365131519 4.30296400054076
3.86747013891202 5.62825003958535 4.74696424054076
2.71590749007366 5.57343190116024 5.55296400054076
1.55163283559773 5.50952830525241 6.41596678054076
1.29372800050021 5.44043301935447 6.44096449054076
1.01765225043726 5.39676174473168 6.55796507054076
0.752494319030005 5.28407153259315 6.44296339054076
0.73275826222932 4.42492318761019 4.25296476054076
5.72552254250909 5.95754061204705 3.00496366054076
5.41310496251528 5.96471735997457 3.24196699054076
4.2851721379702 5.84996574151643 3.90796354054076
2.30904696128897 5.55151991546663 4.85496595054076
1.42810115318572 5.57488252042218 5.65196684054076
0.845066732456809 5.50387852496904 5.98296430054076
0.7544412027763 4.82453062008516 4.21896436054076
0.542001829283446 4.55746397912271 3.69596556054076
5.95979755331334 6.08656937797802 1.93796614054076
5.69643380888796 6.05198356083794 2.09496382054076
5.44398788311829 5.94837880618213 2.08596494054076
4.82640581944041 6.00632722827775 2.71896436054076
1.96208173834619 5.68764908094292 4.31496504054076
1.69146489761109 5.60946833756226 4.32396391054076
0.823231095145414 5.64191640000052 5.16996458054076
0.66351027956696 5.22047333021416 4.21896436054076
0.509248373316354 4.76452079166992 3.16396406054076
6.48839557752817 5.9650227535034 0.0809638805407578
6.11234162096427 6.19559486777058 0.966965460540756
5.81263604660804 6.21185707318081 1.29496458054076
5.55473121151052 6.14276178728286 1.34496382054076
5.25502563715429 6.1590239926931 1.64096525054076
1.78403731103789 5.82927532993815 3.73096540054076
1.20825598661872 5.8018662607256 4.18196562054076
0.950351151521192 5.73277097482765 4.20196607054076
0.668816492130393 5.72360916896273 4.43296507054076
0.59636187741531 5.01883725280369 2.66596678054076
0.31303303104263 4.93157105194032 2.64196470054076
6.55546763129761 6.43548148466709 0.0319640905407614
6.26667987559708 6.38272475256159 0.0669639405407598
5.97789211989655 6.32996802045608 0.219963820540763
5.76724693338558 6.14100577449209 -0.0530349894592415
1.43527790111324 5.88730010041598 2.98196485054076
0.866749673003789 5.90348595744401 3.49196699054076
0.590673922940838 5.85981468282122 3.62496641054076
0.425494198034534 5.47288108179273 2.70496443054076
2.00464596142697 2.91406505210252 21.9459655605408
6.27565081050648 6.77324672755384 -0.0910331894592384
5.98686305480596 6.72048999544834 -0.00803300945923935
3.94420026303073 4.0698268619623 28.0949638205408
0.993869729379567 5.99434053227114 2.37496641054076
0.41808840496039 5.96693146305859 2.78096464054076
0.276538504347361 5.52006438199707 1.72396543054076
4.06055519751523 3.69205506679872 27.6519668405408
0.732300171936074 6.03785911012952 1.53196409054076
0.42167677892415 6.12314025305549 2.02396467054076
0.243785048380269 5.72712119454428 1.12596586054076
0.441641880871457 6.17582063677879 0.89096525054076
0.165566130808507 6.132149362156 1.00696638054076
0.169154504772267 6.2883581521529 0.164963510540759
-0.0651205060319816 6.15932938622193 0.0589645205407625
-0.317566431801657 6.05572463156611 -0.0150329794592419
3.56299279066781 3.25961782997445 25.8469665305408
4.04253697931422 3.17983377056743 26.6929633905408
0.065511575925349 6.67521540479918 -0.0120346294592433
-0.217817270447331 6.58794920393581 0.0129669005407611
2.74778293964537 2.06239884857591 21.9689643605408
4.07536678366352 2.703954304267 25.9209640305408
3.42526030916517 2.16249157765017 23.5749633605408
5.92593704580423 3.79611791174778 31.7249648805408
4.29341776324863 2.39886616896513 25.7959640305408
6.37280412686575 3.65456801113475 32.4289672605408
4.90008200827082 2.40993668438525 27.0829665905408
6.57814310081329 3.34039441835017 32.2649658005408
6.64910892207533 2.89177132449788 31.6349685505408
6.91254901488291 2.65753448788473 31.7249648805408
5.86455294650926 2.48468175056656 26.3549659505408
-0.11245650300074 6.5480190000412 0.0299651905407576
-0.0634026674323095 6.5062564349736 0.0249641205407589
-0.0651968544141895 6.42815203997515 0.0419662305407589
-0.130474721201751 6.03579770380991 0.05196455054076
7.3372750651042 3.72931307731607 31.6689651305408
5.22505889713778 2.94949070144688 25.8309638805408
0.15644249913469 6.27927269467019 0.0739639105407623
0.111129734294435 5.93959874222824 0.208966040540759
0.114718108258196 6.09580753222514 0.688965590540761
0.241838164633973 6.18666210705228 0.75496366054076
0.387129135975178 6.25209267060425 0.726963790540758
0.416217869596302 6.15764972181336 0.81696394054076
0.470730614492581 6.08137768798789 0.977967050540763
0.572426659593204 6.1540613478496 0.97096708054076
0.494360438785856 6.02144420795487 1.27096632054076
0.236608300452748 5.41470361455048 1.57096556054076
0.223819946432962 5.67444081082099 2.03096464054076
0.721382353280377 6.10687804764526 1.33296659054076
0.245731932126565 5.26758028203629 1.96696546054076
0.231225739507107 5.18039042955513 2.12396696054076
2.22949194702857 4.26550776556056 25.8419654605408
0.421753127306358 5.85431759930227 2.75596693054076
2.58737498862704 4.06035966256854 26.2339637505408
0.79593654850617 5.81446374378986 2.09296491054076
0.479854246166399 5.9342543554737 2.95996549054076
0.445382951599634 5.79438411926924 3.10996702054076
2.1860497175524 3.73511555436385 24.8319671405408
0.421905824070774 5.31667229179583 2.88696363054076
3.22671634123411 4.13319601919467 27.7259643305408
0.414576379378837 5.54190001930847 3.26896360054076
-0.168801609070002 0.285161207545664 -0.0240356694592374
0.425494198034534 5.47288108179273 3.33496549054076
-0.172389983033763 0.128952417548762 -3.35894592420338E-05
0.481724781530487 5.74353609671893 3.55096510054076
-0.134253966121029 0.156208789996902 0.00896528054075718
0.46175967958318 5.69085571299564 3.60696485054076
-0.0307637340385265 0.306996844857059 -3.35894592420338E-05
0.429082571998295 5.62908987178963 3.62196424054076
-0.0380168303482555 0.263401918616477 -0.0160362494592401
0.621556843543842 5.84347612902878 3.61296537054076
2.05362344861319 3.14112514078814 23.4789665005408
0.190799271128145 0.426940153305316 -0.166033959459241
0.708746696025006 5.82896993640932 3.67596510054076
0.540131293919358 4.74818223787748 3.15296629054076
0.245312016024424 0.350668119479849 -0.045035569459237
0.498177857896241 5.37118503669211 4.17296675054076
0.160145395671764 -0.363189254161907 -0.0430328594592377
1.41531279916593 5.83461971669269 2.75296476054076
0.712716811899806 4.64106545764011 3.48296430054076
0.256153486297914 0.550471835717333 1.04396513054076
0.299672064156288 0.812041393160826 1.61996534054076
1.52979719828634 5.64756618028389 3.15796354054076
0.783529936397424 4.73008767129426 4.29696348054076
0.414080114894488 0.893810510505245 2.13096693054076
0.674733491751488 4.07616377768553 4.53196409054076
0.640262197184723 3.93629354148107 4.69396665054076
0.468363814644145 1.62400643793944 3.11296537054076
0.374226259382083 0.519627089305432 2.36196592054076
0.783758981544047 3.9236197100346 4.81496504054076
0.540971126123643 1.79113304659204 3.52196577054076
1.6279048694232 5.56404105014869 4.25396421054076
0.560859879688742 2.11263608406856 4.20696714054076
0.423203746568306 0.746687177991056 3.37396696054076
1.7731958407644 5.62947161370067 4.15896681054076
0.722069488720246 3.68747416386626 5.28196409054076
0.87064344049638 4.98440413242803 6.02296522054076
0.843730635768176 3.81283820745126 5.11296537054076
0.477792839846793 0.401592490412368 3.07496336054076
0.926797675610125 5.52388180110745 6.36396482054076
0.64072028747797 2.32335761896174 4.49396589054076
0.673473743445062 2.11630080641453 4.36196592054076
1.97658793096565 5.77483893342408 4.22396543054076
0.819871766328277 4.67923964874395 6.36396482054076
0.67355009182727 1.84747815266131 4.28496626054076
0.93916611352777 0.347232442280504 2.27896574054076
0.492299032466251 0.488782342893532 3.55696562054076
0.941456564993999 5.07342634608217 6.50496366054076
0.682673723501087 1.70035482014712 4.30396345054076
0.539482332670594 0.637738036580705 3.72496488054076
0.892555426189983 4.57754360364333 6.43396452054076
0.778452768980614 3.42048387128602 5.74596479054076
0.58113037516488 1.09002585277897 4.26596525054076
1.19928505170931 5.41134428573334 6.59696653054076
0.785934910436966 2.65761083626694 5.32896498054076
0.740927539125543 1.24264626881211 4.25596693054076
2.14379088800046 5.43340896819136 4.39196470054076
0.97459176287213 3.52225626476885 5.84396436054076
1.41180077358438 5.40958827294257 6.44596556054076
1.06155257020667 4.31421803340906 6.45496443054076
0.798494219310128 3.2043416012561 6.21096494054076
0.657478757372555 0.875715943922026 4.55096510054076
2.16921489927561 5.45157988315679 4.64596632054076
1.07426457584425 4.32330349089177 6.53996351054076
0.873048414535923 2.9119272974007 5.88496473054076
2.28541713699569 5.61145339549966 4.64496687054076
0.965468131198312 3.66937959728304 6.49296644054076
1.58438629156482 5.3024714927052 6.48196485054076
0.910802689537617 4.28329693861495 7.42396620054076
0.889348794137261 3.07722154488032 6.43496397054076
1.42955177244766 0.467252099110968 2.82996443054076
0.759251150855385 0.679576950030511 4.80496671054076
1.74238926854361 5.37698751373989 6.41296461054076
1.0071161736926 4.12166741348131 7.29196623054076
0.893089864865438 2.69578502737078 6.39996412054076
2.41807245108153 5.3989758478157 4.98796537054076
1.08144132377177 4.63572107088558 7.82296446054076
1.20348421273074 3.41697184570447 6.53896406054076
0.904084031903343 2.35794343610182 6.44096449054076
0.748180635435272 1.28624119505269 5.92496565054076
1.54296729421716 4.04371571524727 6.41596678054076
1.1672950795643 2.93017456074834 6.48296430054076
0.853388706117447 1.78395629866452 6.38496473054076
1.20302612243749 5.0299077682238 8.36396482054076
1.00406223840429 2.08370004721185 6.47196653054076
2.57786961504219 5.55159626384884 5.33696440054076
1.21035556712943 4.80468004071116 8.30496671054076
0.971232434054992 2.55957951351229 7.04396513054076
0.882553788120779 1.42069069612041 6.30796507054076
2.56156923544085 5.38630201636922 5.32896498054076
1.13595406866805 4.55944903706011 8.43396452054076
1.46146539621047 3.21724447784919 6.45196607054076
1.06762226659218 2.12912733462542 6.55096510054076
1.51120636721877 0.756078029002601 4.26596525054076
0.884500671867075 0.961149783612414 6.08596494054076
1.4936080651199 5.16076889532775 8.08696440054076
0.922254946868769 2.33251942482666 7.21296385054076
1.5711780214429 0.645296526419265 4.11696699054076
0.888165394213043 0.848535919856094 6.09096601054076
1.23577957840458 4.82285095567659 8.63196638054076
1.06388119586401 2.51056385213496 7.12596586054076
0.962490544292214 1.36258957726037 6.44796446054076
2.29820549101548 5.35171619922915 6.45296552054076
1.93345109501831 4.16915610721448 6.47796705054076
1.18867262658245 4.40507260823619 8.63396528054076
2.72503112174748 5.42630856864605 5.63196638054076
1.23047336584115 4.31971511692801 8.66496351054076
1.54880794545605 2.66509297772329 6.48496702054076
1.08602222670423 1.2972353620906 6.54296568054076
2.76316713866022 5.45356494109419 5.67996671054076
2.14589046851117 4.43622274817692 6.44096449054076
1.82652518573647 3.32451395485098 6.37596586054076
0.989785090931458 1.19004223347102 6.81296614054076
1.29201016190054 5.09350597060279 9.24396589054076
1.56339048645772 2.48346017645123 6.43596342054076
2.71777802543775 5.38271364240546 5.70796659054076
1.19779625825627 4.257949275722 8.73996427054076
1.54701375847417 2.58698858272484 6.46996382054076
0.997038187241187 1.2336371597116 6.81496504054076
2.19853267804336 4.55066897310623 6.44096449054076
1.15584282223315 4.88095207453663 9.44096449054076
1.63710484947922 5.14809506388128 8.44096449054076
1.11068275415731 4.00363281458824 8.90696409054076
1.5960675940426 2.54522601765724 6.45796659054076
2.76137295167833 5.37546054609574 5.83096388054076
1.2777330144277 4.19984815686196 8.82696607054076
1.65783343524861 2.51254891007236 6.42796400054076
2.00705093546651 0.841588217075196 4.20096662054076
0.995244000259306 1.15553276471315 7.08596494054076
3.7698205580684 4.09883924720121 28.7669647005408
1.27750396928108 5.00631611812163 9.59596708054076
1.66149815759458 2.39993504631604 6.50796583054076
4.08972027951856 3.32878946425461 28.0849654905408
1.28116869162705 4.89370225436531 9.76196363054076
1.72513453416467 2.17653967997638 6.45096662054076
2.09969969727553 0.792572555697869 4.32096556054076
1.08789276206832 1.10651710333583 7.23196485054076
2.75137131360913 2.21860763857281 23.2959640305408
1.34659925517902 4.7484112830241 9.74196699054076
1.10045207094148 1.65324786832498 7.88496473054076
5.33377899340151 3.87223724880883 31.6629684205408
2.75240201676893 4.98493857110348 6.50696638054076
1.99491154269549 5.21176961464248 8.65396574054076
1.2777330144277 4.19984815686196 9.71996382054076
1.07315752430224 1.82579521211433 8.35296705054076
2.88311044710847 5.23200193592752 6.51396635054076
1.08041062061197 1.86939013835491 8.52296522054076
1.4210007536404 4.99364228667516 10.3069656205408
1.23436713333374 3.40063329191203 9.57396391054076
1.1603473767834 1.81128901949487 8.46696546054076
2.12023741208939 5.22451979447116 8.81896665054076
1.21596717322169 4.23252526444685 10.4169662305408
1.18726018151161 2.98285494447163 9.49296644054076
1.1712651954391 1.74227008197913 8.50996473054076
2.13115523074509 5.15550085695543 8.85396650054076
3.48733154390001 1.0545238550524 6.56496504054076
1.17603696932708 4.12716449700026 10.5349662605408
1.1891307168757 2.79213668571686 9.44596556054076
1.24581939066489 1.44985577812374 8.26796415054076
6.01228706608111 6.73866091041376 -0.102034779459238
3.98554291199619 5.59740529317345 4.35596540054076
1.23944430075055 4.71023709192027 10.9039657405408
1.22719038540622 3.08821571191822 9.65496519054076
1.17134154382131 1.47344742822591 8.49096372054076
5.95239176023919 6.58061975924388 0.0229652205407622
4.15259317226658 5.79362063544717 4.10796430054076
2.1293610437632 5.07739646195697 8.89396360054076
4.91115252369093 1.80327243936306 10.8689658905408
1.1891307168757 2.79213668571686 9.60296705054076
1.2777330144277 4.19984815686196 10.5329635405408
1.23451983009816 2.86298798440558 9.60896375054076
5.95972120493113 6.35539203173124 0.0289657405407628
3.21182840670361 5.39011943547961 6.51196363054076
1.31586903134043 4.2271045293101 10.5819671405408
1.19100125223978 2.60141842696209 9.65796354054076
4.91905458124942 5.95731156690042 2.45196607054076
1.33762832026962 4.35788930803185 10.6979644605408
1.32709224352496 3.08279497678148 9.76696470054076
4.0971260725927 2.83473908298875 27.1909644905408
5.91074371774491 6.12833194304561 -0.00103303945923683
5.49475955728639 6.2535432898662 1.18296507054076
3.2445055142885 5.45188527668562 6.54596403054076
1.33755197188741 4.62671196178507 10.9279640005408
1.37427554372931 3.23175067046865 9.78196409054076
6.15578385044044 6.72598707896729 -0.105033129459243
4.03459674756462 5.55564272810585 4.55596617054076
1.34301088121526 4.5922024930272 10.9649665605408
1.31079186392362 2.91750072930186 9.76996687054076
1.27857284663199 1.24279896557653 8.54196623054076
5.25143726319053 6.0028152026962 1.95696714054076
3.29542988522102 5.21940445286325 6.51696470054076
1.37755852416424 4.46325007547844 11.0059669305408
2.29381545903854 1.62270851544191 6.42796400054076
