ply
format ascii 1.0
comment File exported by Rhinoceros Version 7.0
element vertex 1049
property float x
property float y
property float z
end_header
3.50600242854027 5.06560357205286 19.02799988
3.43538469484312 4.69074233347587 17.96100044
2.86030445293336 1.7901521624305 9.80900001
4.47057899112822 8.09080892798013 27.70200157
3.94182778672179 5.39120413996115 20.10899925
3.21585846332511 1.76224855479023 9.90799904
3.55259000377157 1.70011639866469 9.94000053
5.24860211600472 8.49392464682821 29.21000099
3.89302417382217 1.55392254698753 9.70999908
5.5949872705438 8.41043542767423 29.15999794
5.96292800815243 8.43099841053819 29.42299843
5.60710622654243 6.48686856412055 23.9450016
6.35339384531052 8.40172824633579 29.50499916
5.96909597966259 6.44472691446132 24.02699852
5.22849157416471 2.62053841071136 13.28499985
6.69977899984959 8.31823902718181 29.47099876
5.60286805450176 2.62686335155636 13.49799919
7.08927532052779 8.44285421206371 29.99500084
7.42005587648577 8.31801742341498 29.83199882
7.24761121192929 7.48559980727149 27.50300026
6.33231378699062 2.68222735930323 14.03899956
7.76868938590917 8.38129453233582 30.20900154
7.59399636646837 7.40211058811752 27.43699837
6.67548107016549 2.60585716115873 13.97399902
8.09898518362721 8.33340041822924 30.25699806
8.05957664709224 8.04123431864174 29.42099953
8.26472633423701 7.20802262233377 27.25699806
8.1170551241143 6.47253818719874 25.22300148
8.63910281457406 7.21434756317877 27.46899986
7.79764099469674 2.77871733277802 15.02300072
7.7270232609996 2.40385609420103 13.98900032
9.00431043905844 7.16508689251006 27.5189991
8.6878971939834 5.51312314567992 22.8939991
8.16236386094117 2.80639933665146 15.31699943
8.09496399860823 2.42441907706499 14.2519989
9.34104197950489 7.10295473638452 27.55100059
8.89304688112817 4.67991144937195 20.74600029
8.54269132576669 2.87542891001965 15.69499969
9.69064500540817 7.01234649622107 27.46899986
8.93267240468483 2.92310142035939 15.98900032
10.1718298846131 7.69281779624004 29.55200004
10.0241586744904 6.95733336110501 27.48599815
9.45970156315317 3.8815007779469 18.86000061
9.40468842803711 3.54798710886466 17.9090004
9.28774165683664 2.97214048726127 16.31900024
10.4956899396028 7.65916172415242 29.63400078
9.65197976484112 3.07676516567685 16.79400062
10.7008396267475 6.82595002784445 27.46999931
11.1884602486809 7.49218328584446 29.50200081
11.010064599636 6.59706103717779 27.01000023
11.7459460748532 6.63818700290571 27.48599815
12.8616702566561 6.82528521654395 28.51799965
13.2566328035828 7.08954770849118 29.40299797
4.75216351084949 6.70914637574339 53.25699806
13.4672487169761 6.39598331924855 27.66499901
3.76158543961991 7.30736574430653 50.09200096
14.1632368974185 6.22188585993112 27.49999809
3.61100568005752 7.03353735642438 50.1079998
14.6320350494065 6.85389056944586 29.46800041
14.5096220519575 6.13839664077714 27.45099831
15.6674878834196 6.68748460753555 29.50100136
15.8785885550528 5.91697754375077 27.48399925
16.2121022241351 5.86196440863471 27.49999809
16.5773098486195 5.812703737966 27.49999809
17.0396722578791 6.45894648949971 29.46800041
16.9140413890659 5.75057158184047 27.51600075
17.2856847562787 5.6870728691528 27.4829998
17.6224162967252 5.62494071302726 27.46600151
18.3781820932705 8.04992303299961 34.42000008
18.7548069284918 8.20301430191942 34.97699928
19.0965199369469 8.35747212740137 35.58299827
18.4859092244217 4.54917446043132 24.92399788
19.4676785459197 8.37091608925585 35.74699974
18.9596888444184 5.39776915155355 27.46600151
20.1567462253937 8.28799934649952 35.82800102
20.4907446527159 8.15604353684131 35.63099861
20.8150894659455 8.04544479021155 35.48399925
20.3700029170084 5.16074545594609 27.41499901
20.2837805847302 4.74453664787435 26.2670002
21.2105367711121 8.23276460761663 36.13899803
20.6938629719981 5.12708938385847 27.49699974
20.627432626145 4.5912237751877 25.97099876
21.5380994557059 8.11504683997738 35.95900154
21.4271036689939 7.60190485089718 34.54899788
21.3542375804124 7.08027728424537 33.08899879
21.583675963751 6.42094144348801 31.39999962
21.5140277465338 5.89219485582672 29.89100075
21.8012123781127 5.63619633768427 29.35000038
21.697621850609 4.95493095750082 27.44799995
22.0311355196912 4.89991782238476 27.4470005
22.3963431441756 4.85065715171605 27.4470005
22.7551150259316 4.8156345230663 27.49699974
23.1069664067192 4.87179261097766 27.80700111
23.5234845367155 5.24010730494282 28.97099876
23.8602160771619 5.17797514881728 28.93800163
24.1749072762989 5.08873346521596 28.83999824
8.40489995024858 5.60811729372859 52.0189991
3.41907835100039 6.77531356712333 50.01099968
3.39434644727291 5.16088395830036 39.97500038
-3.49681510570702 6.0669940604058 55.71599769
3.61263539109277 6.27122963201239 51.23999977
4.10849690310521 5.6294374227959 53.27300072
3.39095313959329 5.6994826800954 51.50200081
3.23071976593829 5.44701135524169 51.48700142
2.80710569865824 5.70135707862318 50.12499809
-0.563778449801322 7.39275706245915 39.74699974
2.47416912271879 8.18294069404056 27.67500114
2.80494967867677 8.05810390539183 27.52799797
3.15133483321585 7.97461468623785 27.47799873
2.51259890928358 3.09048613223987 13.94799995
2.44519904695064 2.7085058726534 12.86499977
3.00343740258116 3.74960036923041 15.9640007
2.68605464102623 2.25152197148456 11.78299904
2.63699249039864 1.9807129349255 11.01099968
4.26882261166306 8.38542190249306 29.18300056
3.53963541690217 4.76358533833162 19.01599884
3.47175079632929 4.4585477532873 18.17899895
4.60185152250536 8.40735144191915 29.46199989
3.97497601684375 5.16612858078206 20.32699966
4.9509697901687 8.39368587629784 29.6099987
4.53546272735859 6.35398940543388 23.88500023
5.30330592919625 8.37290128966705 29.72300148
4.88779886638614 6.33320481880309 23.99999809
6.12527585108263 7.84421933643776 38.11300087
5.60931303072046 8.15113132000987 36.48900032
7.3443643398772 5.22305304838704 44.7860012
-5.44416282348887 6.42993486302528 57.05600166
-5.28714732119807 6.68952520888847 57.07299995
-2.43063783277171 6.06022591202713 55.71699715
-2.56755202671278 6.13551579180832 55.29000282
4.11325215060181 2.35649752253096 12.81500053
5.66481092407647 8.40770231454997 30.0189991
5.48963314639572 7.50546104487382 27.49299812
6.02953379032089 8.43538431842341 30.28100014
4.90784939053929 2.6470754617895 14.01099968
4.84913362581908 2.39762348825888 13.32299995
6.38508780071265 8.40748071078314 30.37999916
5.23267896200881 2.45953404061758 13.64999962
6.70251211297386 8.38806268071448 30.51000023
7.06079923648987 8.42998272660688 30.80399895
5.90195465505762 2.49627409846028 14.15999985
7.406699632789 8.42343618199505 30.95200157
6.2483398095967 2.4127848793063 14.06099892
7.74938215772392 8.4240086583927 31.13199806
7.50036877498183 7.15402517114903 27.5739994
8.06777598646502 8.25070527923974 30.8200016
8.3252056956016 7.68118359848135 29.40999794
8.20777416616118 7.18227965142012 28.03299904
8.51748389728955 6.87644798621131 27.32700157
8.38219941438372 6.1894301415805 25.42500114
8.54375317714943 5.22505671577881 22.88400078
8.20900222036904 3.46192174592126 17.9470005
9.20011583403513 6.80776928547394 27.47500038
8.54621851905544 3.32284691525357 17.69999885
9.02965175314471 4.15008454334736 20.19299888
8.85769184682818 3.24072425266172 17.66699982
9.97073369970333 7.37900839542527 29.42600059
9.8386670881617 6.68487152978499 27.47400093
10.640978909232 7.26186310418368 29.45900154
10.5089122976904 6.5677262385434 27.52400017
10.8520795808653 6.4913560403989 27.47500038
11.6576092732998 7.0612285937881 29.40899849
11.852620588112 6.32631663505072 27.52300072
-5.75788450614593 6.36529119754231 57.20099831
11.0084348886007 7.35936876158978 51.99699974
6.75729902757794 5.23204646792431 43.42500114
26.4407734749406 -5.32907051820075E-15 -0.152999879999999
10.2683660255393 7.47924716595564 50.07900047
10.1016969091559 7.24101388312089 50.04500008
10.5438241244567 6.56635968198126 52.07800102
12.9269972004201 6.52901944727006 28.57299995
-1.0295341667406 7.28511303272048 38.84599876
-1.23433298125456 7.05536532745734 38.66399956
13.5486650175612 6.06412244492726 27.62000084
-1.38169486945274 6.77441791856572 38.71299934
14.3353722400504 6.5997664498312 29.42299843
14.2000877571446 5.91274860520039 27.53800011
-1.86834597490622 5.95429931148141 38.73000145
14.8418568826353 5.78273182850197 27.47199821
15.6312972182488 6.38819948693857 29.47400093
15.5056663494356 5.67982457927933 27.50599861
15.8391800185179 5.62481144416327 27.520998
16.1823473016927 5.54844124601878 27.47199821
16.8590282539499 5.41705791275822 27.40699959
17.3085191777527 6.09177674832984 29.43900108
17.1796704375753 5.39052086168008 27.48800087
17.491143765348 5.30839819908823 27.40600014
18.2592962891102 7.78184710956481 34.45799827
18.3938282425578 6.57377417467985 31.24299812
18.192113413799 5.35089072137828 27.81599998
18.096722225668 4.87909630179283 26.51999855
18.3660539037816 4.43498388608082 25.43699837
19.3698635665891 8.28383504238113 36.34200096
18.7372125127544 4.4484278479353 25.61699867
19.6974262511828 8.16611727474189 36.16200066
20.0121174503198 8.07687559114056 36.06400108
19.5239197352436 4.98407185283923 27.40500069
20.3543152170148 8.15439074208036 36.42399788
19.7707263138077 4.58979258419358 26.46999931
20.6841262564929 8.18343930251593 36.65299797
20.1528173752776 4.88253116017873 27.42099953
20.0945863687973 4.55613651210596 26.5189991
21.0075015532425 8.22672590497045 36.91599846
20.4243974082754 4.58518507254153 26.74799919
9.76562556326483 6.69472366391873 50.07800102
7.61458243305804 7.66004813921975 43.66699791
9.44837668731903 6.18266199320184 50.06099892
26.3415042208902 0.143746976751723 0.425999640000001
26.3487340437831 0.507103286434019 -0.114999769999999
5.31414604679045 6.14868274895426 38.68599892
6.73116363332718 7.86945446538576 41.27400017
21.3506688364174 8.15035570682596 36.83299827
21.5746409935075 7.35137255900326 34.75100136
21.4829524349807 6.79551644386618 33.17700004
21.7091729469551 6.1432996241183 31.55200004
21.6174843884284 5.58744350898122 29.99600029
21.4992587788235 4.71094521021872 27.53399849
21.8327724479057 4.65593207510266 27.53499794
22.1662861169879 4.60091893998661 27.50200081
22.5451593070936 4.90077653698123 28.4849987
22.8836544441845 5.06235338347266 29.09200096
23.2107323705383 5.02157829037556 29.1079998
-0.23670052344749 7.35198196936205 28.35099983
-1.98723177906647 5.68622338804661 38.82800102
2.86471806128943 5.11867767420914 38.77799797
-3.76438318717616 6.73481547873477 38.71100044
-3.19001392401832 6.22281844244987 56.25699806
-3.5595843726622 6.96456318399791 38.90699959
0.430368365423284 5.72445927131543 50.0720005
2.04751262038994 7.91292573764598 27.51399803
2.40579974390595 7.95484578353838 27.84200096
2.72741144401126 7.77442338337594 27.49799919
3.0356669004198 7.69941974179358 27.51399803
3.51460342474044 8.23312471373773 29.17000008
3.37561631223046 7.63016856465856 27.51399803
2.41897131779703 2.84240071527139 14.03199959
3.84811709382268 8.17811157862167 29.21899986
3.70639686818844 7.50533177600983 27.35000038
2.9033740683662 3.51575299428088 16.11499977
3.4561461977482 4.41720018379255 18.85499954
4.58126545591569 8.14941389081692 29.51399803
9.86797880307039 5.55784093912857 51.96399879
9.25001361553348 5.93867624591975 49.97899818
25.846787661673 0.100174136098369 0.39299965
5.76826756597104 8.10295096770447 38.69999885
26.1949364128565 0.240393919561354 0.95100021
26.1989483643852 0.610869250253131 0.394000050000001
3.93508272206884 4.9509051557367 20.55999946
4.88132157295144 7.86493928863655 28.93900108
4.63552606157355 6.58783678038341 25.33199882
4.54335274480684 6.10892333978848 23.98700142
5.1102751980501 7.28254612242134 27.49600029
4.861261815308 6.01256263517767 23.93800163
4.18210628765459 2.50764975849099 14.04800033
5.6776824095333 8.37922623051205 30.76000023
4.62388263032458 2.89595495892247 15.32600021
4.52527357082946 2.43127956034649 14.03199959
5.99880935139866 8.27574650489177 30.6439991
4.8367468986022 2.34915689775465 13.99799919
6.32315416462823 8.165147758262 30.52900123
7.44209621779528 8.34512695089077 31.57800102
7.78848137233435 8.26163773173679 31.52900123
8.06376403493634 7.88022994854797 30.6439991
8.00601778669601 7.47689262593305 29.47899818
8.22531779770205 6.91585652274627 28.13500023
8.19781123014402 6.74909968820515 27.6420002
8.5253739147378 6.6313819205659 27.47799873
8.39652517456038 5.93012603391614 25.51000023
8.2763605319957 5.36139843332224 23.91900062
7.87099184151816 3.22340222488768 17.93300056
8.85245184109163 6.59060682746881 27.54300117
8.55212795283762 4.90304797559126 22.80399895
8.27512324429755 3.54325032834862 18.99900055
8.2012876392362 3.17550811078111 17.96500015
9.19561912426649 6.51423662932431 27.49400139
9.66441727625457 7.14624133883905 29.46100044
9.06328474150662 3.84806630962612 20.21299934
25.5707109189066 0.103987567585937 0.821000100000001
25.8807299719595 0.252692928620533 1.26399994
26.1365299700608 0.445478972274138 1.52699947
26.1915431051769 0.778992641356384 1.13299942
26.2943395525161 1.08266366983858 0.88700008
8.99540012093373 3.54302872458179 19.35899925
9.90399403192574 6.3886057605111 27.51199913
10.7127415957245 6.95135929289083 29.4450016
10.5871107269113 6.24298438523159 27.46100044
10.8953661833198 6.16798074364922 27.4450016
11.5656113928485 6.05083545240762 27.44399834
12.2390744737414 5.92657114015655 27.44399834
0.813428943373065 5.86331249821628 50.76099968
13.0698623788497 6.51643420001206 29.44399834
12.9662718513459 5.83516881982861 27.52499962
1.38361081868681 5.51231983202515 52.63099861
13.3671853827611 6.16213594429902 28.60700035
13.296567649064 5.78727470572203 27.55700111
13.9512082600116 5.62878184498568 27.44299888
2.00880582911661 5.49484083491628 54.13900185
14.9517492672583 5.46374243963751 27.49199867
15.9936378439998 5.28309843570824 27.47599983
16.6477936967075 5.20154824951404 27.55700111
16.9909609798824 5.12517805136955 27.49199867
17.4248473051041 5.75854931744642 29.44199943
17.3212567776004 5.07728393726297 27.50699806
18.1654932613083 8.06524139338188 36.05100059
18.5517717106222 8.19697559927325 36.55900001
18.236812740267 6.31418382881667 31.29500008
18.8944542355572 8.1975480756709 36.72400093
18.9994482535841 4.62697584956994 27.03100014
19.3141394527211 4.53773416596862 26.9489994
19.668723946633 4.66371590741264 27.45699882
20.5858265189223 8.17330093018336 37.3939991
19.9958018729868 4.62294081431554 27.48900032
20.9133892035161 8.05558316254411 37.21399879
20.3545737547427 4.58791818566579 27.53800011
25.2914163047759 0.114920020082986 1.12899971
25.4994329906541 0.337548704336642 1.26000023
25.9367126235554 0.432321248618486 2.09700012
26.1189863385199 0.711902100947979 2.04699993
26.0306495369665 1.13494369183038 1.1789999
26.229012608752 1.37892943911247 1.22799969
21.2904987969774 8.13173175692178 37.5739994
21.1836903981095 7.45758539774781 35.68800163
21.4589730607114 7.07617761455898 34.8029995
21.3640666308205 6.52744052043138 33.27699852
21.6279320826855 5.94368079765404 31.75300026
21.5206389255776 5.34647711302221 30.11200142
21.8174771712491 5.06912153185132 29.47300148
21.7171045151097 4.38073713065839 27.53800011
22.1014439314639 4.82024203471835 28.93100166
22.7868089813337 4.82138698751365 29.21000099
27.617914217372 7.56237627898851 38.68599892
27.9385564009974 7.53583922791038 38.7349987
28.6115347236504 7.48851759020145 38.83299827
28.9482662640968 7.42638543407591 38.80000114
29.266175334598 7.3300247294651 38.70099831
29.6185114736255 7.30924014283431 38.75100136
29.9423715286151 7.27558407074669 38.78299904
30.2662315836048 7.24192799865907 38.81599998
30.5933095099586 7.20115290556198 38.81599998
30.9107338222198 7.18173487549332 38.89800072
31.2534163471547 7.18230735189097 38.99600029
31.5713254176559 7.08594664728016 38.88099861
31.9021059736139 6.96110985863143 38.66699791
0.894979129567262 6.51746835092394 50.03999901
1.33464100296206 7.74502395030956 27.46600151
1.68697714198961 7.72423936367877 27.57999992
2.82425690686201 8.01538977933495 28.98999977
2.71647899151421 7.49512876924527 27.51399803
3.17659304588956 7.99460519270416 29.15299797
25.0056859479168 0.140090514598993 1.43900013
25.1594835788434 0.40679988147166 1.39099979
25.6031989544732 0.487334383734543 2.27600002
25.9320404774714 0.670268293254406 2.68599987
26.1002977541838 1.66369027949167 1.52199936
3.06286414605329 7.4116395500913 27.51399803
2.46820890474003 2.58173005104489 14.11400032
3.75563445513144 7.24466111178334 27.43200111
2.96499838252608 3.30354892055861 16.32799911
3.48607655650595 4.19924364562294 19.06799888
4.67859567700639 8.31343761223378 30.79199791
4.57998661751127 7.84876221365781 29.4810009
3.9461906108813 4.69872006908182 20.65799904
5.04605165637508 8.41094326963989 31.25200081
4.60303802600694 6.2044899642348 25.0529995
4.52598454958138 5.84386676767677 24.05200004
5.35479187102356 8.25899695351537 31.03899956
5.22197273002374 5.66976930835933 23.95300102
6.82977269282231 8.33412986396173 32.00499916
7.15411750605188 8.22353111733196 31.87399864
7.48168019064566 8.10581334969272 31.72599983
7.17395104318335 6.58637788891843 27.47799873
6.59935555951353 3.60884504333091 19.09799957
7.8486514117744 8.28026168164097 32.41499901
8.07165405238459 7.63516388290256 30.77499962
7.28569012586327 3.45610464704191 19.03199959
8.28050636913351 6.71789049104297 28.36499977
8.21905749128904 6.39861486397968 27.47799873
8.44254489013917 5.67657439069913 25.65699959
8.32608287717864 5.0237850945536 23.80399895
8.07755425267649 3.67685893276778 20.01599884
8.92421452758408 6.28010301617595 27.52699852
8.59863242665636 4.5725536578321 22.73800087
8.42345464897562 3.67031238815595 20.19599914
9.26416393939474 6.21085183904094 27.51000023
24.7888097281105 0.316413245075035 1.66499996
25.4501954037111 0.598219368563134 2.71399975
25.7983441548945 0.738439152026119 3.25599956
25.8120097205158 1.08755741968946 2.74699974
25.9625894800782 1.3613858075716 2.64900017
25.8995108911985 1.80441790492031 1.77899933
26.1010918343482 2.04128463119292 1.8779993
8.88356870335096 4.16978881161484 21.76999855
9.7265263486544 6.85709459057464 29.49400139
9.91558667897814 6.05947799931407 27.4450016
10.7178985000485 6.63646957371276 29.41300011
10.6078722298163 5.96944223554826 27.52699852
11.7818274180995 6.48293509725928 29.51000023
8.70235683976919 6.23983576504451 49.9849987
12.3296596301792 5.65029587734896 27.50900078
6.12527585108263 7.84421933643776 41.6400013
1.64664063968103 6.06846218536106 52.4489994
13.1287535798853 6.23440647275713 29.47699928
12.9999048397079 5.53315058610737 27.50900078
1.0074291909991 6.7997823163777 49.92399788
13.4132050983399 5.90858430108201 28.72199821
13.345805236007 5.52660404149553 27.67199898
2.27505352147504 6.0438641672427 53.95800209
14.1421660725888 6.04089098337103 29.47599983
1.22509949096989 7.00105393760292 50.17099953
15.0391165523319 5.1945861978394 27.58999824
15.385501706871 5.11109697868543 27.49099922
15.6905392919153 5.04321235811254 27.49199867
16.0589647877639 4.98683266643435 27.47599983
16.7388636113852 4.84833031216431 27.42500114
17.0911997504127 4.82754572553352 27.54099846
17.5503442883082 5.48090749807671 29.50800133
17.4214955481308 4.77965161142695 27.55700111
18.2969412290008 7.85030420653535 36.29799843
17.7678807026698 4.69616239227297 27.45799827
18.6634276918896 8.10169521302575 37.14999962
18.4309884242085 6.71917394619254 33.28000069
18.2966734577826 5.87827075247744 30.93400001
24.5035641294914 0.264641065048895 1.97799969
25.0661653092814 0.613251490746574 2.66800022
25.522752170368 0.66530990897154 3.63399982
25.7339867276104 0.880819572215715 3.7670002
25.7801403287983 1.61328465602766 2.7329998
25.9624140437628 1.89286550835715 2.68400001
25.9728617380199 2.24910279702997 2.14299965
18.9964566027319 8.12362475245184 37.37899971
18.4188186840133 4.62173122708825 27.5720005
19.3643973403405 8.1441877353158 37.55999946
18.758768095824 4.55248004995323 27.53999901
19.7162487211281 8.20034582322715 37.88799858
19.1111042348515 4.53169546332244 27.63699913
20.0782384742483 8.15820417356793 37.92099953
19.4570046311506 4.52514891871061 27.78499794
20.4204362409433 8.23571932450772 38.31400108
20.7911100916762 8.32610596090435 38.69099998
20.1891834767638 4.65033657999015 28.44099998
21.11818801803 8.28533086780725 38.73999977
21.4232256030743 8.21744624723436 38.69000053
21.3077331065937 7.41077160200453 36.44399834
21.747085658064 8.18379017514674 38.75599861
21.451433915894 6.25828427863328 33.3599987
22.0962039257273 8.17012460952543 38.87000084
21.6868232837211 5.6616530703991 31.86799812
21.5983525965585 5.09867793425255 30.29300117
22.436153337538 8.10087343239042 38.82100105
21.9085470859268 4.71590359450159 29.34200096
22.782538492077 8.01738421323644 38.73900032
23.1096164184309 7.97660912013934 38.770998
23.4463479588773 7.9144769640138 38.75499916
24.100503811585 7.8329267778196 38.78700066
24.4243638665746 7.79927070573198 38.83699989
24.7514417929285 7.75849561263488 38.86799812
25.0913912047391 7.68924443549987 38.8029995
25.4565988292235 7.63998376483116 38.80399895
25.7836767555773 7.59920867173406 38.83600044
26.123626167388 7.52995749459904 38.76999855
26.4222280097039 7.47631091604511 38.78700066
26.7525238074219 7.42841680193853 38.7689991
24.2775190538324 0.385378184011229 2.1789999
24.5907559782495 0.526964524036345 2.65399933
24.7859011786708 0.778069292327919 2.68699932
25.3031428374374 0.771808985914912 3.88399982
25.6002904050335 0.948990430987427 4.27899933
25.7315629364106 1.26553294492645 4.04799938
25.7737045860699 1.62752269804662 3.57299995
25.8765010334091 1.93119372652881 3.30999946
25.8423832868072 2.3101546347922 2.67099953
25.9929630463696 2.58398302267435 2.53999996
27.0952063323569 7.42898927833618 38.88400078
27.7434112005761 7.2847344596188 38.7689991
28.0989652109678 7.25683085197853 38.81799888
28.4595006893681 7.44551722594574 39.50699806
28.7994501011788 7.37626604881072 39.42399788
29.1233101561684 7.3426099767231 39.45699882
29.4191788853601 7.21913974463651 39.26000023
29.7398210689855 7.19260269355837 39.30900001
30.0765526094319 7.13047053743283 39.27599907
30.4013821809015 6.94292911626092 38.86599922
30.7353806082236 6.81097330660271 38.62000084
31.0651916477017 6.84002186703828 38.86599922
2.17591815303369 7.17362787102338 52.15500069
31.4083589308766 6.76365166889378 38.73399925
31.7257832431378 6.74423363882512 38.81500053
2.73644641425481 6.8439922678607 53.92499733
2.84567860432244 7.13342525432393 53.79400062
-4.67222456870997 5.78432922232122 38.8900013
0.497726677049945 7.62393595871641 27.47099876
0.824804603403777 7.58316086561931 27.56899834
1.23907437851574 7.80470923150966 28.37199974
1.16797188657865 7.50679066747481 27.5529995
1.53317951106302 7.4575299968061 27.58500099
2.29881590872264 7.81217912514995 28.99600029
2.5309874051855 7.22266693792526 27.50300026
2.84246073295824 7.14054427533341 27.45400047
3.0647523948165 3.08285926926474 16.59600067
4.17056442479875 6.85778710234599 27.45200157
3.58953319840053 3.89449229877743 19.08799934
24.1212976317061 0.503382189849297 2.51099968
24.3738797584432 0.703287254512382 2.77199936
24.7413357378119 0.800792911918489 3.46099949
25.1630107721321 0.854217886705584 4.31400013
25.4698119538208 1.01004226874966 4.75699997
25.5376965743937 1.31507985379399 4.44499969
25.6308394076403 1.64010794530462 4.13399982
25.7416597580369 2.68472963517037 2.73999977
25.9400228298225 2.92871538245247 2.77299976
4.80585625685484 8.25950479548103 31.56899834
4.76322984895567 7.97445771690301 30.74899864
5.123765327356 8.16314409087023 31.48700142
4.84080963432746 6.74064181110439 27.48599815
4.17725870525514 3.27707650391247 17.72599983
5.4788345795078 8.2121831577721 31.81400108
4.49468301751635 3.25765847384381 17.87400055
5.48579663118244 6.60350601339649 27.45200157
4.89559654893154 3.58462559831422 18.95699882
4.83463242932701 3.18840729670879 17.84199905
6.17015061386612 8.27603274309059 32.32299995
5.17087921153352 3.2032178151254 18.05399895
6.49401066885574 8.24237667100297 32.42099953
5.56262388709603 3.47459932808211 19.00699997
5.92734675334046 3.50228133195554 19.26799965
6.27373190787954 3.41879211280157 19.21899986
7.54731645633422 8.26408460666223 33.04400062
6.92687669340103 5.00862370350617 23.87600136
7.88999898126915 8.26465708305988 33.20699882
8.16801475699539 7.95307295340372 32.5189991
8.07632619846863 7.39721683826664 30.9279995
7.83969954294341 6.1756999415272 27.49999809
8.28645735362198 6.78059512356616 29.35299873
8.2217906044133 6.46843851751235 28.49999809
8.15712385520462 6.15628191145854 27.63099861
8.48146866843419 6.04568316482878 27.46700096
8.37095763996213 5.45559850120643 25.82700157
8.25079299739745 4.88687090061252 24.21899986
8.49535122107719 4.34582530389206 22.87399864
8.43068447186851 4.03366869783825 22.02200127
9.14206026387027 5.94989493661562 27.56500053
9.82839483022001 5.79715454032662 27.49999809
23.8576076161565 0.555662211841096 2.74599934
24.1101897428936 0.755567276504181 3.04099941
24.6016884307465 0.806259138167013 4.05799961
24.9181432265279 0.940726457182647 4.56699943
25.3205110326629 1.03686555802662 5.3039999
25.4871801490463 1.27509884086137 5.31999969
25.4530624024445 1.65405974912476 4.64799976
25.4506386112447 2.03877312183549 4.02499962
25.6522195543945 2.27563984810811 4.1079998
25.6887195414898 3.02946199494849 2.99300003
10.1334324152643 5.72926991975374 27.49999809
10.595794824524 6.37551267128744 29.48399925
10.7972418820646 5.6263626705311 27.51600075
11.4357931361912 5.50346491484215 27.53199959
9.1665243963795 5.59229109138067 51.98599815
12.2413228286257 6.07333746823136 29.46600151
12.4492056288948 5.30994942545606 27.48200035
12.8528522734342 5.70674020345914 28.77699852
12.7854524111013 5.32475994387267 27.71100044
-4.53451629460441 6.08663369424129 38.76000023
13.2262592372914 5.86695049338844 29.38400078
13.1097972243308 5.2141611972429 27.54699898
5.21549543658904 7.2015037781928 52.64800072
13.522612724723 5.66653758675969 28.97400093
13.4336572793205 5.18050512515528 27.59699821
13.8551568773253 5.76540980072793 29.41599846
13.7263081371479 5.06415391407817 27.46499824
5.1701359155656 6.84663304608211 53.0739994
15.4003122252876 4.77485019647892 27.46499824
15.7273901516414 4.73407510338182 27.49799919
16.0292098653215 4.67330950381841 27.49899864
16.3627235344038 4.61829636870235 27.46499824
16.6930193321218 4.57040225459578 27.49799919
17.0421375997851 4.55673668897446 27.61300087
17.3756512688674 4.50172355385841 27.62800026
18.3363497655358 8.14247030612285 37.96000099
18.2414433356448 7.59373321199525 36.41800117
17.8127554654533 5.1279757989258 29.53000069
18.653774077797 8.12305227605419 38.07499885
23.493369508152 0.451037533425509 3.04899979
23.6407313963502 0.731984942317135 2.91899967
24.1515373123884 0.73996267792309 4.06599998
24.3182064287718 0.978195960757835 4.09899998
24.8225766020815 1.00041173838275 5.18099975
25.1675074819008 1.14775054285521 5.72299957
25.3116514987348 1.43581697275632 5.59199905
25.4112300747098 1.74660702224799 5.32899952
25.4662432098258 2.08012069133024 4.95199966
25.5666158659653 2.76850509252318 4.08300018
25.7236313682561 3.02809543838636 4.00099945
25.7212075770564 3.4128088110971 3.37899971
18.5070723841542 7.23368249183487 35.56500053
18.3759752890924 6.38566027711029 33.17099953
19.0110916848331 8.31885767103088 38.76299858
19.3257828839701 8.22961598742956 38.64800072
19.6464250675955 8.20307893635142 38.69799995
19.9670672512209 8.17654188527328 38.79500008
19.3862114611381 4.68176738091917 29.03700066
20.3005809203031 8.12152875015722 38.79599953
19.7536674405068 4.77927303832527 29.44799995
20.627658846657 8.08075365706012 38.84499931
20.0807453668606 4.73849794522817 29.49600029
20.9735592429561 8.07420711244829 38.95900154
20.457370202082 4.89158921414799 30.0529995
21.2850325707288 7.99208444985644 38.87800026
21.6185462398111 7.93707131474038 38.84300041
21.4649240451999 7.13888224708217 36.645998
21.4017115707111 6.59589761740192 35.08799934
21.9203659534912 7.87630571517698 38.81099892
21.605406983136 5.99351394472039 33.57900047
21.5137184246092 5.43765782958332 32.03700066
22.2221856671713 7.81554011561357 38.79500008
22.5859390169359 7.9971074685713 39.44999885
22.9221857991424 8.01191798698791 39.64700127
23.2492637254962 7.97114289389081 39.6799984
23.5465867294077 7.61684463817778 38.80999946
23.851624314452 7.54896001760489 38.77699852
25.1094195945199 7.34587863228388 38.76000023
25.5130662390594 7.74266941028696 39.97400093
25.439715392238 7.2979845181773 38.76000023
23.3109203568721 0.702936381881567 3.26399994
23.7261596484639 0.770599398687621 4.10099983
23.9373942057063 0.986109061931797 4.24800014
24.1795286381863 0.829776837922065 5.00199985
24.4321107649235 1.02968190258515 5.26499939
25.1284082672903 1.31012146951112 6.41399956
25.2287809234298 1.99850587070405 5.55999946
25.3412309848617 2.28081983615781 5.36399937
25.4504631749293 2.57025282262105 5.14999962
25.5062703902099 3.28136084340455 4.13399982
25.6058489661849 3.59215089289622 3.88899994
25.7945584238778 3.85749370320676 3.87199974
25.8465799081416 7.6876562751709 39.97300148
26.1548353645502 7.61265263358854 39.90799904
26.4947847763608 7.54340145645352 39.82599831
26.7933866186767 7.48975487789959 39.82499885
27.0919884609926 7.43610829934566 39.80900001
27.0466289399692 7.08123756723498 38.80800056
27.4190663873465 7.39533320624856 39.80800056
27.7337575864834 7.30609152264724 39.69299888
27.6787444513674 6.97257785356499 38.75900078
28.0576176414731 7.27243545055962 39.72599983
28.3393360468034 6.87678962535183 38.75800133
28.6760675872499 6.8146574692263 38.70900154
-0.635850458218307 7.24872384750859 27.51399803
29.5939134555071 6.6808272610403 38.72500038
29.920991381861 6.6400521679432 38.72400093
30.5751472345686 6.55850198174901 38.73999977
30.880184819613 6.49061736117612 38.70799827
31.2072627459668 6.44984226807902 38.72500038
31.5531631422659 6.44329572346719 38.78999901
31.8329425146365 6.35542059642799 38.69199943
4.82921698727505 7.06976957230142 51.92600059
4.41525653408763 7.30275823265448 50.66300011
4.0735435256326 7.14830040717253 50.05700111
4.82441095558188 6.32169988990839 53.00800133
-0.262928252601093 7.48587681198004 27.55100059
0.0898926446663975 7.3881495508071 27.48599815
0.500944548414152 7.61681693770693 28.35500145
23.0128032727961 0.679640285893347 3.56999969
23.3545162812512 0.83409811137529 4.07800007
24.1082507099338 1.06333797467277 5.42199898
24.5041827733404 1.1737151175357 6.15999985
24.8872433512902 1.31256834443656 6.79999924
25.1430433493916 1.50535438809016 7.06299972
25.2554934108234 1.78766835354392 6.89900017
25.16715660927 2.21070994442632 6.02899933
25.2253876157502 2.53710459249908 5.65200043
25.3153125776326 2.8692517050192 5.30799961
25.4626744658308 3.15019911391082 5.19400024
25.50481611549 3.51218886703099 4.73499966
25.5373041510566 3.8955356831796 4.17700004
25.6975375247116 4.1480070080333 4.1609993
0.442228783693941 7.36736496417631 27.64999962
0.85006281607749 7.60315137208562 28.51799965
1.19918108374083 7.58948580646431 28.66599846
1.119394494191 7.1590389563736 27.45200157
1.7675993624102 7.01478413765622 27.45099831
2.12637124416616 6.97976150900647 27.5170002
2.81914155324431 6.81278307069852 27.4849987
3.15909096505497 6.7435318935635 27.49999809
3.58503648863189 3.6009596426278 19.18400001
4.8724620390233 8.26389070336625 32.50200081
5.25874048833729 8.39562490925762 33.05900001
4.85883802410827 6.39727600788841 27.43400001
4.64650006477688 5.34963496669957 24.48200035
4.28649089532277 3.5665094903757 19.47999954
5.57391644571418 8.22944055111415 32.79599953
4.60810259542808 3.38608709021327 19.16900062
5.90791487303638 8.09748474145594 32.61599922
5.04714582497381 3.70456863711207 20.2670002
5.3999667222413 3.60684137593914 20.16900062
5.99166262991832 4.87739733958045 23.94000053
5.72157842234661 3.4264189757767 19.85599899
7.0139854407466 8.30594001812263 33.76399803
7.31307204130245 8.17535076502656 33.56699943
7.65623932447732 8.09898056688206 33.5170002
8.01130857662913 8.14801963378394 33.86200142
7.93795772980772 7.70333474167427 32.59900093
8.15130675632528 7.07959400596431 31.05700111
8.06605394052693 6.50949984880827 29.43300056
7.68497394624321 4.54537949592432 23.92199898
22.8313236379961 0.777653785265108 3.95399952
23.0710342792764 1.00603493396611 4.10099983
23.5850580666788 1.00689364856259 5.26599979
23.8505116788727 1.17832262918775 5.62599945
24.6391579343217 1.4061959359231 7.03800011
25.0157827695431 1.55928720484291 7.62800026
25.0579244192023 1.92127695796308 7.15200043
25.1703744806342 2.20359092341684 6.97200012
25.2860424134302 2.47878586786111 6.80699921
25.4714924490527 4.26874412699563 4.38199997
7.58909799987235 4.15052775088102 22.8239994
8.3537233303458 6.17655865612368 28.6950016
8.28037248352439 5.73187376401401 27.43300056
8.16937669681238 5.21873177493381 26.00599861
8.04696369936338 4.50323784626509 23.98800087
8.61710402397084 5.66974160788848 27.4489994
8.37774425532136 4.37840105761637 23.8239994
9.0982889031758 6.35021290790745 29.53100014
8.95061769305309 5.61472847277242 27.4810009
9.28734923349954 5.55259631664688 27.48200035
9.62086290258179 5.49758318153082 27.4810009
10.2722856421652 5.34620934180396 27.44999885
10.6310575239211 5.31118671315421 27.49799919
12.4435639663308 5.70178181917628 29.46499824
4.96079884057673 7.84084911248385 38.90099907
12.6546646379641 4.9312747553915 27.48000145
13.0858178500616 5.4948223679357 29.2349987
12.9849604356821 4.88338064128492 27.51299858
4.15866245582182 6.73237783729962 50.82800102
13.3216919761286 4.82124848515938 27.51299858
3.73747217974149 6.60201018797037 50.05800056
13.7969258708451 5.43901515265516 29.43100166
13.6901174719772 4.76486879348119 27.51299858
14.0365026265162 4.68137957432721 27.44799995
3.58367454881491 6.33530082109771 50.07299995
14.3667984242343 4.63348546022063 27.4810009
14.6750538806428 4.55848181863827 27.46299934
15.0273900196703 4.53769723200748 27.54500008
15.3544679460242 4.49692213891038 27.59399986
22.4826901285727 0.714376676344272 4.11999988
22.6939246858151 0.929886339588448 4.25099945
23.0388555656343 1.07722514406091 4.79199982
24.2298696272183 1.40123755164023 6.97299957
24.4856696253197 1.59402359529384 7.2519989
24.9041267882757 1.65456759109041 8.10499954
25.0238066726005 2.30023786622647 7.35099983
25.0884734218092 2.61239447228027 7.03999901
25.2326174386431 2.90046090218138 6.90799904
25.4470283165434 4.62634797223058 4.64599991
15.6944173578348 4.42767096177536 27.54500008
16.4357650593006 4.60844423456861 28.38199806
18.0602730227693 8.14628373761042 38.77900123
18.3905688204874 8.09838962350384 38.77900123
18.7079931327486 8.07897159343518 38.90999794
19.0571114004119 8.06530602781387 39.00800133
18.488157579306 4.69594078850614 29.59399986
19.4121806525637 8.11434509471575 39.28700066
18.8216712483883 4.64092765339008 29.59499931
19.7860723746608 8.19761271010289 39.6799984
19.1831762432685 4.67572867827299 29.87299919
19.5414633667845 4.71764872416539 30.11900139
20.4407129856084 8.03911984936655 39.54799843
20.7673061537223 8.0752874308116 39.82700157
20.2268284166543 4.71879367696069 30.4299984
21.1132065500214 8.06874088619977 39.90899849
21.3453780464843 7.47922869897507 38.43300056
21.7760465003418 8.11971898606142 40.36799812
21.6719712145982 7.51539628042012 38.6950016
21.4766921285677 6.27827478509959 35.2349987
22.1256495262451 8.02911074589797 40.25300026
21.6332644233249 5.09731137769041 32.08500099
22.4623810666916 7.96697858977243 40.23700142
22.8050635916265 7.96755106617008 40.38400078
23.113319048035 7.89254742458771 40.35099983
23.4468327171173 7.83753428947165 40.31799888
23.7518703021616 7.76964966889877 40.2689991
24.0821660998796 7.72175555479219 40.2860012
24.4124618975977 7.67386144068561 40.28399849
24.3207733390709 7.11800532554853 38.74299812
24.7303709680988 7.5775007360748 40.17000008
24.6763273494627 7.09010171790826 38.79199791
22.2947747510443 0.826628217734992 4.36600017
23.7448066820938 1.33630764795844 6.85899925
24.0483899924183 1.499251051012 7.28499985
24.7736483370631 1.71561942885265 8.58099937
24.8957520125875 1.97657633127796 8.46500015
24.9768174405418 2.70767485852777 7.48200035
25.0731781451526 3.02558392902893 7.18599892
25.1695388497634 3.34349299953009 6.9090004
25.2623308103792 4.73148049261182 4.92399979
25.4671296248932 4.96122819787496 5.02299976
25.0735382512737 7.5011305379303 40.08799934
25.0162767612733 7.02085054077324 38.74299812
25.3465725589914 6.97295642666666 38.74400139
25.6800862280736 6.91794329155061 38.72599983
25.9851238131179 6.85005867097772 38.71000099
26.6786882023606 7.06067458437102 39.52900123
28.3004122685084 6.50768085122219 38.67500114
28.6210544521338 6.48114380014405 38.72500038
28.9293099085424 6.40614015856168 38.6420002
29.2563878348962 6.36536506546458 38.65899849
29.9073258162397 6.29093390027987 38.72400093
30.2693155693598 6.24879225062064 38.72500038
30.5996113670779 6.20089813651406 38.72400093
30.9326402779202 6.22282767594015 38.90500069
31.243628847453 6.21764768789045 39.03499794
4.40758350366107 5.49884816969982 53.17299843
31.5551021752257 6.1355250252986 38.92000008
-1.91617083783566 7.50163837989597 27.55100059
3.75148861799362 5.88816905406261 51.08999824
-1.25187661279543 7.32178845613118 27.4849987
3.42987691788831 6.06859145422504 50.10700035
-0.867846518365759 7.30675633394774 27.63300133
-0.502638893881386 7.25749566327903 27.71499824
-0.125529300420074 7.3336442576567 28.15699959
0.267669649862273 7.37419774698696 28.45200157
0.184180430708295 7.02781259244789 27.50100136
0.944350602119388 7.24281441372641 28.4849987
0.854425640236996 6.91066730120629 27.56699943
22.0655118040211 0.954484357706805 4.56699943
23.3043091778283 1.24865412468608 6.89500046
23.4838497796685 1.45841132348291 6.99399948
23.8287806594878 1.60575012795537 7.5019989
24.2821496492101 1.66492756718981 8.43799972
24.6399520144862 1.78379028762436 9.09300041
24.7234412336402 2.13017544216343 8.6989994
24.819801938251 2.44808451266459 8.43700027
24.9768174405418 2.70767485852777 8.37100029
24.9330460798473 3.1079928298196 7.64999962
25.102933067595 3.33910709164487 7.66600037
25.0559438355363 3.74654408394618 6.89500046
25.2193950805555 3.9918963877904 6.91300011
25.2663427619079 5.1019558233036 5.27299976
25.5092712745524 5.32321795099513 5.43700027
1.89036323249001 6.66731866475384 27.50100136
2.60839175424188 6.52033073291219 27.49999809
2.95477690878095 6.43684151375821 27.45099831
4.693406195423 7.97719083002728 32.53399849
4.31135668465939 6.16695582622762 27.46700096
5.08241775786125 8.17874868945132 33.33699989
5.00858215279989 7.8110064718838 32.28800011
5.46918096541518 8.23354022080054 33.66499901
5.02616733504704 6.02708691539545 27.46600151
5.84033957438802 8.24698418265502 33.8939991
5.05018826002261 4.22892931688815 22.59499931
6.21149818336087 8.2604281445095 34.1079998
5.40847538353862 4.27084936278054 22.92299843
6.54501185244311 8.20541500939344 34.15600014
5.83513188586747 4.54086431917512 23.84100151
6.87852552152536 8.15040187427738 34.18900108
6.1622098122213 4.50008922607802 23.92299843
7.26480397083935 8.28213608016875 34.73000145
6.49250560993934 4.45219511197144 23.98900032
7.60426862441006 8.28982757757588 34.96000099
6.86414897715213 4.38869639928377 23.97300148
7.90754261281002 7.99823395438604 34.33699989
8.17784380740342 7.40023618958973 32.82700157
8.06089703620295 6.82438956798634 31.22099876
8.25044212476663 5.94983030218363 28.95699882
8.13993109629457 5.35974563856128 27.30100059
8.49821821981058 5.40166568445368 27.59599876
8.39365817582699 4.87428565335452 26.12000084
8.95784751594598 5.97808478245471 29.41599846
8.82899877576857 5.27682889580495 27.43200111
9.18455278616032 5.24892528816468 27.51299858
9.49280824256886 5.17392164658232 27.49699974
21.7109273101092 0.828502616262782 4.94199943
22.838068702649 1.21795276948955 6.86000061
23.0111735617609 1.44194801030534 6.94199943
23.4006698824391 1.56656319518723 7.59899902
23.7842152186288 1.62847374754594 8.40200043
24.0942342716817 1.77717910858053 8.84499931
24.5062556919093 1.85196114639607 9.68099975
23.8472522568022 2.70293807801174 6.84499931
24.6957592297668 2.49489830840786 9.07499885
24.6965533099312 2.87249266010912 8.48399925
24.853568812222 3.1320830059723 8.45199966
24.8194510656202 3.51104391423569 7.78000069
25.0210320087699 3.74791064050831 7.82900047
25.0929285808715 4.42342355624441 6.9279995
25.2531619545265 4.67589488109812 6.9109993
25.2386607580344 5.46667868954803 5.61599922
10.2011831502281 5.04829077776911 27.51299858
10.6984573862541 5.69316697274068 29.4810009
10.544350433403 4.97192057962461 27.4810009
10.9159938006158 4.90842186693694 27.46399879
11.5706344115634 4.7499290062006 27.39800072
11.9041480806456 4.69491587108454 27.39800072
12.2597020910374 4.66701226344427 27.48000145
12.7032420303517 5.2790264664927 29.39800072
12.5964336314838 4.60488010731873 27.49600029
13.0560629276192 5.18129920531977 29.28399849
12.9423340277829 4.5983335627069 27.6610012
3.76951700777444 5.54480325084662 51.59900093
13.4212705521036 5.13203853465106 29.31699943
13.3107595236315 4.54195387102871 27.67600059
3.48524092563519 5.33914572173619 51.25499916
13.663580420899 4.44422660985577 27.54500008
3.1094101705783 5.56364880451763 50.0739994
14.021867544415 4.48614665574817 27.84100151
-0.245384621060222 7.21945368330619 39.81099892
14.36406531111 4.56366180668797 28.26600075
14.7255703059902 4.59846283157088 28.47899818
15.0677680726852 4.67597798251068 28.88899803
16.0326539571977 8.15572036468135 38.79599953
16.3758212403726 8.07935016653685 38.74699974
16.7345931221285 8.0443275378871 38.81099892
17.071324662575 7.98219538176156 38.81199837
17.4080562030214 7.92006322563603 38.79599953
21.4881001058144 0.942120714215634 5.32499981
17.7351341293753 7.87928813253893 38.84399986
18.0718656698217 7.81715597641339 38.82800102
18.3989435961755 7.77638088331629 38.87600136
22.4944166612342 1.3712656421762 6.89999962
22.9032202100977 1.45316670100121 7.70199966
23.2610225753737 1.57202942143576 8.3579998
23.6822128514541 1.702397070765 9.07999992
24.0813627862249 1.80565519261845 9.80200004
24.350034269783 1.96996515223414 10.19599914
23.5508987693706 2.90335098464048 6.91600037
24.5006140293454 2.24379354011629 10.07999992
24.6066283480488 2.540345547589 9.85099983
24.6202939136702 2.88946381525234 9.34300041
24.7238844411739 3.57072919543579 8.48999977
24.871246329372 3.85167660432742 8.39299965
24.9198237217597 4.19942831542862 7.96699905
24.9756309370402 4.91053633621213 6.9489994
25.1423000534236 5.14876961904687 6.94999885
25.2960976843502 5.41547898591954 6.86700058
25.2362369668347 5.85139206225877 6.03199959
9.12790994000902 5.67771934349443 50.07800102
7.50005945305729 6.69948814490562 44.76600075
8.97411230908243 5.41100997662176 50.11099815
18.7874704003739 8.05488141728248 39.81099892
18.5096716116693 6.31748941833858 34.92399788
18.3592672884223 5.51218132967088 32.69299888
19.149460153494 8.01273976762325 39.82800102
18.6075281417062 4.88707403739878 31.11900139
19.4985784211574 7.99907420200194 39.97500038
19.440832172917 7.59573687938702 38.82599831
18.9603490389737 4.78934677622585 30.98700142
19.8999767108125 8.24909865193021 40.81099892
19.8417457043322 7.92270400385744 39.90899849
20.1931123268799 8.05580476631094 40.44999885
20.5610530644885 8.0763677491749 40.63099861
20.8816952481139 8.04983069809676 40.71299934
21.2152089171962 7.99481756298071 40.6970005
21.5234643736047 7.91981392139834 40.66300011
21.4263095888294 7.22431049919593 38.71100044
21.3318879171784 6.59863073052618 36.95599937
21.8698495281438 7.83632470224436 40.56400108
21.5704951563697 5.99488050128253 35.4299984
21.4852423405713 5.42478634412649 33.83999824
22.2254035385355 7.80842109460409 40.645998
22.4585445514783 7.0650235582951 38.72699928
21.1986671193512 1.05135290428327 5.61999893
23.1223540182786 6.96211630907246 38.72699928
24.4435372091507 6.77053985264615 38.77599907
25.1170002900436 6.64627554039507 38.74199867
25.4505139591259 6.59126240527901 38.72599983
21.9110539785391 1.29619736616184 6.85000038
25.8028500981534 6.57047781864822 38.77499962
26.111105554562 6.49547417706586 38.72500038
26.4812946470549 6.66280348800463 39.31599998
22.5976978668134 1.59799399611625 7.93300056
22.93297513254 1.76668986361715 8.42399979
23.3927798649908 1.81162926083263 9.42499924
23.7312750020816 1.97320610732406 9.91699982
24.229209432663 2.00965992696793 10.9659996
23.1879394997706 3.09937798338401 6.91699982
24.3926606776822 2.25501223081216 10.9659996
24.407120323468 2.98172485017675 9.88500023
24.551264340302 3.26979128007786 9.75300026
24.7222547301386 4.33303691984778 8.44199943
24.8347047915705 4.61535088530154 8.26199913
24.9852845511328 4.88917927318369 8.14599991
25.1438882137526 5.90395832244939 6.90200043
25.2209416901782 6.26458151900742 6.49200058
10.6120180669542 7.325934293269 51.9849987
7.53016524813045 5.95005190595046 45.9470005
5.0349853182689 7.14563192848026 38.3560009
7.37557353703938 5.30574818737654 46.51999855
6.79494396746854 5.30050356489484 45.15999794
27.1084286904445 6.33755379272716 38.69199943
27.4672005722005 6.30253116407741 38.74099922
28.134227910365 6.1925048938453 38.69199943
28.7631255503989 6.09096420118479 38.70799827
29.1154616894264 6.070179614554 38.74099922
29.4425396157803 6.0294045214569 38.77300072
29.7943909965679 6.08556260936826 39.06899834
30.1467271355954 6.06477802273747 39.13300133
30.4958454032588 6.05111245711616 39.23200035
31.1004543470989 5.77569590890505 38.73900032
-0.44052982148156 6.96834891501462 39.71199989
-1.79662483912005 7.16129192800306 27.57900047
-1.4598932986736 7.09915977187753 27.61200142
-1.12637962959135 7.04414663676147 27.66200066
-0.449213919094291 6.83582062895876 27.46399879
0.230684904527031 6.69731827468873 27.51299858
0.583505801794521 6.59959101351579 27.43100166
0.972032605992826 6.87809154748198 28.43100166
1.90517375090662 6.33107188254733 27.4470005
2.24512316271728 6.26182070541231 27.46199989
2.95028019901232 6.14330885760858 27.51199913
3.94487022177059 5.91556481973722 27.44600105
4.73651736156212 8.18529523406315 34.02200127
20.8936295343069 1.11923752485616 5.87199974
21.5738376798527 1.43527219682952 6.90399933
4.64756191615962 7.69926277245874 32.6439991
22.0717721104341 1.4717260164734 7.98600006
4.98107558524186 7.64424963734268 32.69299888
4.69639784627523 4.48054192714538 24.00100136
22.3657018066659 1.65602648255539 8.34799957
4.62899798394229 4.0985616675589 22.90299797
5.80913037722584 8.16428904366552 34.53000069
5.30144999764903 5.64567913220663 27.46199989
23.0909601513107 1.87239486039604 9.67600059
23.3499780207762 2.05806188304017 9.98699951
23.588894581892 1.90884868003992 10.72500038
23.8924778922165 2.07179208309347 11.16799927
24.1928433311768 2.2418545071565 11.59499931
22.9824804907013 3.47805265344857 6.92099953
24.2382028522003 2.59672523926719 11.15200043
24.2899981159521 2.93735792935892 10.74200058
24.3799230778345 3.26950504187903 10.39800072
24.4349362129506 3.60301871096128 9.98799896
24.5124744476161 3.88669923297717 9.74200058
24.6023994094985 4.21884634549728 9.38100052
24.6574125446145 4.55236001457953 8.98799896
24.7092078083664 4.89299270467126 8.59499931
24.8436982111077 5.2024161976008 8.38199997
24.8987113462238 5.53592986668305 7.98699951
24.9886363081062 5.86807697920316 7.64299965
25.0055197450917 6.21007622585702 7.16799927
25.1179698065235 6.49239019131078 6.97299957
25.2272019965912 6.78182317777402 6.77499962
25.262907903522 7.15805097291314 6.21800041
25.3114852959096 7.50580268401435 5.79199982
25.401410257792 7.83794979653446 5.4640007
25.4532055215439 8.17858248662619 5.0369997
25.5399126120621 8.51784862015578 4.65999985
25.6110151039992 8.81576718419063 4.38099956
25.7306949883239 9.46143745932669 3.62699985
25.8206199502063 9.7935845718468 3.2670002
5.0811804701631 6.3606005844777 39.61799812
