ply
format ascii 1.0
comment File exported by Rhinoceros Version 7.0
element vertex 1052
property float x
property float y
property float z
end_header
8.94428483642883 2.91786653685938 14.43599701
7.44441097462421 5.42671561784757 6.91399765
4.21032608988741 6.1732385718262 51.07600021
9.54074900078807 6.92578619096426 8.8429985
9.66336209357001 7.48117106436599 8.15199661
9.64852356641805 8.1108601414008 7.06199646
9.88020541216052 8.57886505641598 6.73399734
9.1895779627167 10.3767143942916 2.17099762
10.0555901090242 9.69186616068589 5.17999649
5.32156442175881 6.59916008502395 6.98099899
5.48262380368785 5.95081685956953 6.8809967
0.404054210026452 0.170485342706684 1.10099792
1.70727853831201 0.478412673078069 3.43499756
3.01927210144076 0.84199005866295 5.70499801
3.0546614308588 1.51202207869135 4.6309967
3.71561182599872 0.973550894885391 6.96699905
3.64847027983296 1.71677143981366 5.54999924
5.67206605259024 5.31554938886856 6.90499878
5.31252742401965 3.03389712511526 6.9679985
8.88191839524129 4.24820185836242 14.43399811
5.93483070784049 6.537619246099 55.91399765
7.57075043437513 1.94102286519282 13.6629982
0.303821632633099 6.66159346693548 44.55199814
8.36308315714017 2.01358661000208 15.25299835
8.96996776086777 2.18995310415102 16.25999832
8.93551560158564 2.86221648164588 15.03899765
9.05159081699086 3.43179278853429 14.3429985
7.22404211123669 5.53163404592049 6.81299972
9.07821091156572 4.04617475334919 13.34399795
9.45352523742417 7.04043333759094 9.01899719
9.61759695193292 7.58051109877275 8.44499969
9.75328579946831 8.10751310520111 7.82199859
9.82136451576999 8.70658795779611 6.94599914
8.9492830771537 10.0767753236501 2.69999695
9.47325043742767 10.2837560422389 3.50299835
10.0120563248536 9.86104768379283 5.33899689
9.02336414504015 3.64243293336804 14.35099792
8.99451269299883 2.95820947985296 13.72699737
0.434668434466275 0.253402586160312 1.61100006
1.08954953729742 0.400270534602664 2.78299713
1.60044114281794 0.635634120164792 3.5359993
2.29724945244386 1.43834265514887 3.67599869
2.95166197020704 0.914062904829585 5.98699951
2.86267543444465 1.63001626151772 4.60999679
3.55854657393465 1.09042939897853 6.98799896
4.28757568537623 1.15103306776756 8.50299835
4.46949825961666 2.24984273855079 7.02799988
6.64335364416531 2.23632071230404 6.97299957
5.38921918014186 3.46490613333654 6.93799972
19.889740303077 5.67229882060608 44.5379982
4.44423929309634 6.71108497554155 55.75500107
8.09679295709292 1.99412917289455 15.29699707
0.440804667499037 5.91614156454075 44.54099655
8.79090132418442 2.05584852041682 16.68899917
8.96628602104812 3.16884962468672 15.18999863
6.89221694239952 5.43037504409256 6.85699844
9.04744049210324 3.73954161030835 14.34599686
9.08713634143155 4.3255407081499 13.47699737
8.17883997113463 6.96929766156022 6.97200012
8.31452881867002 7.49629966798858 6.36499786
9.43183644285019 7.23688204893802 9.22699737
8.40045839470336 8.65410643018499 4.61199951
9.54568030078894 7.73661686712625 8.60299682
9.59845190487071 8.29423309799443 7.76699829
9.7341407524061 8.82123510442279 7.11999893
9.93090185379848 9.2903556981712 6.75099945
9.30964730798688 10.4148259798187 3.51499939
9.99898057010015 9.88943055076619 5.85799789
3.50149076351728 10.0271053064467 5.51799774
4.61433567276453 9.62800470999582 8.06399917
0.260377102761137 0.706412779000882 1.03299713
0.648655615499722 0.386391491161287 2.42599869
1.28392308620069 0.575833740063683 3.47499847
1.24947092691856 1.24809711755854 2.31199646
2.68314041269333 0.824763979021884 6.11399841
3.23549063994067 1.0448204523641 6.95899963
3.99290261835561 1.11849987590659 8.47499847
3.5701719463349 2.11078454124104 5.90099716
4.19013230481595 2.25876816841663 7.01599884
3.61232228887632 9.33841913799873 5.25299835
5.43099019191398 3.89703082029105 6.91699982
7.90688212312257 1.95824894483389 15.52199936
8.73190423277123 1.95985552220974 17.29199982
4.44807722793865 5.95590435459306 55.33499527
8.85451732555317 2.51524039561146 16.6289978
9.02512691743865 3.04112672330659 16.08799743
6.67838595638873 5.5211020386788 6.84399795
8.84014738346917 3.81607717140791 14.35799789
8.94091548665447 4.3441948565695 13.69499969
8.17707719873612 7.57060387162168 6.54999924
9.30092270029302 7.29699481908443 9.45899963
2.74173585976255 6.59768738909609 47.38100052
8.27177600961266 8.78406068903158 4.69799805
9.66829339357088 8.29200174052797 8.50899887
9.65345486641892 8.92169081756279 7.41899872
8.68538042959555 10.35087527483 2.83799743
9.83714021305786 9.41919427828456 6.93799972
9.97282906059325 9.94619628471292 6.29599762
4.41518701888304 8.86532672796003 7.00499725
0.397828722695031 0.632108575367787 1.9489975
0.663962727719634 0.427850112888101 2.85899734
0.596821181553873 1.17107065781637 1.45800018
1.17755427577457 1.40420288591204 2.34199905
2.02395278995192 0.761928952766389 5.21899795
2.64614450589943 0.979754068642147 6.22699737
4.01267244550844 1.29964147503375 8.68699646
6.76311059939019 1.82700049865675 13.72699737
6.91209833742567 8.89741364832771 13.58099747
8.6252899730238 8.68887097951242 17.89599991
5.43337774440309 4.19058820857844 6.90999985
8.74306102010353 2.30906296571062 17.20899963
8.81571401921144 6.33371780081395 14.43799972
8.93375282918714 3.46352269170734 15.68499756
8.88622491515156 4.16416893617556 14.37399673
9.05683450703704 4.69005526387069 13.84199905
7.9937042421425 7.52053221007433 6.72799682
9.54998682069921 7.65258394493939 9.84999847
3.04169724397867 4.8263019507727 30.82799911
8.70499406172573 10.3083009743699 3.45100021
9.16088270569803 9.9162068403637 5.1309967
9.71930222525414 9.45092418145761 7.10599899
5.37324266068201 5.59076501878166 6.95899963
0.552662617292642 0.445388582574471 3.00999832
0.457138204153519 1.17553337274929 1.5949974
0.954954054920591 1.43927982528478 2.24799728
1.81442832385139 0.768623025165767 5.23099899
2.42131292757899 0.944989519314711 6.2559967
2.93220453309952 1.18035310487684 6.99300003
2.57054611493579 2.11475635753134 4.60899734
3.68961651151447 1.25403252841933 8.45299911
6.49235768441002 1.66786008414887 13.90199661
7.05124578903408 1.87372512400441 14.7539978
5.56922278696113 4.94130611459401 6.88399887
7.65813039276168 2.05009161815335 15.72099686
9.11743817582607 3.9610261524291 15.40399933
5.44007181680247 4.40011267467897 6.97799682
8.46130751281371 2.02443100728907 17.54099655
4.10623326407709 4.00926810085396 49.13699722
8.65153073682937 2.50774303452416 17.1309967
8.91766474185397 2.30348457204447 18.05599975
4.80257298863504 4.1408289370764 51.12799454
8.90329479976997 3.60432134784092 15.77099991
9.08044226903217 4.11601624204937 15.31199646
9.00453148802323 4.80358673176414 13.97999954
7.89117336655869 7.59372073497419 6.81399917
9.36884522157204 7.67235377209222 9.86399841
6.58384334053485 4.53136112085611 56.09599686
9.58568854016256 8.77004776414221 8.48499679
8.45401097389839 10.3303021589892 3.3809967
8.98627898394759 9.92178523402985 5.19199753
8.9750552558913 3.22449967990022 14.42699814
0.330530981506618 1.15161322070884 1.71399689
1.66820746907431 0.787277173585367 5.23799896
2.310012817152 0.962527989001082 6.34399795
2.83621153489244 1.23935019629002 7.04099655
2.46801523935199 2.18794488243121 4.6309967
3.59362351330739 1.31302961983251 8.55799866
6.40290256357966 1.71266574207537 13.98199844
6.955252790827 1.93272221541759 14.81799698
19.6497578075593 5.81979154913904 44.63399887
8.45046311552672 2.12265536296261 17.72799682
4.15262318580477 4.80479166479603 49.72800064
8.63414846216565 2.62015882368438 17.28399658
6.34209807261865 5.28016005945052 55.86700058
5.96020124223413 5.36227401421622 6.86100006
8.80953315902935 3.73315992795428 15.76799774
8.98668062829155 4.24485482216273 15.29399872
8.95876634638615 4.90292676617091 14.10799789
9.37330793650496 7.81203674949257 10.03399658
-3.45485539246828 6.3062721039765 56.27099991
9.58361337771875 8.92392217502925 8.5739975
8.9492830771537 10.0767753236501 5.23799896
9.70622647050069 9.47930704843097 7.86899948
0.674963320029278 0.553341656801773 3.97399902
0.367839278345818 1.444054930263 1.85999679
1.31023079073024 0.742783905704169 5.08899689
0.86788648657935 1.77764287149867 2.3769989
2.04802913701501 0.859037629706699 6.48199844
2.54807634524855 1.19262557094237 7.00699997
2.16026641757792 2.18379455754359 4.50799942
3.33387119063686 1.2793807492383 8.57199859
3.38280485987631 2.59217760105498 6.48199844
6.23483671920594 1.70405270225484 14.1609993
6.73265256997302 1.96779915479033 14.83300018
19.8042793121116 5.18563975717131 44.49200058
8.282397271153 2.11404232314207 17.92999649
9.08541819618238 1.86466581269058 13.59799957
5.4601540340006 5.02868607298056 6.89299774
-3.72991482735872 6.23116461165548 57.0170021
5.78782887795015 5.43769389658255 6.89299774
8.80906457396139 3.06201222919265 17.44799805
8.91730772465934 4.91823387839082 14.55499649
9.3079291627377 7.95395108435939 10.1989975
9.40439074601274 8.56610169170783 9.35899734
8.06765142858096 10.2727331363546 3.58199692
9.50515884919804 9.09421937686942 8.68699646
9.6692305637068 9.63429713805123 8.08899689
8.60514081510168 1.71221947058208 12.2199974
0.710352649447321 1.22337367683017 3.50999832
1.22300702736635 0.857431052330848 5.21500015
0.710821234515278 1.89452137559181 2.38799667
1.89750176232767 0.961724700313156 6.55899811
1.28278509389279 2.07200354847398 3.36199951
2.53930711040536 1.13697551572887 7.60699844
3.10473309240615 1.32864912209773 8.55799866
3.67892830925013 1.57597278368008 9.39499664
3.5816411237125 2.90742378391635 6.96099853
6.46636236992576 1.94834171768281 14.80999756
7.14739498226381 2.03844393217843 16.15599823
2.51732823936074 10.2962516440511 3.55999756
8.55091882866672 2.20334124894978 18.93299866
3.36388294856074 9.87769361049262 5.49399948
5.42762084213962 5.32335914000117 6.89499664
-3.23894924401368 6.06167069850323 55.87199783
8.84414151333413 3.28461245004663 17.70399856
8.9086946848388 5.08629972276454 14.79499817
9.09891790885446 5.56961174999962 14.3789978
9.19886040977717 8.04133104274593 10.37799835
9.40215938854628 8.49626020300766 10.07499695
-3.66246089114766 5.93537586590163 57.10699844
7.91489269642715 10.3055787182609 3.78099823
8.3315540761391 9.99863318517471 5.18299866
9.59061984016343 9.5808784403042 8.59199905
4.47895921527445 9.54843450274188 8.20899963
0.627591601016347 1.47770380085721 3.53199768
1.95219233383059 1.14175062070709 7.00099945
2.71614218962226 1.2012386107629 8.56399917
3.35794753769995 1.37648942617861 9.67099762
3.50764931012471 3.21740396315687 6.95800018
6.03854420288152 1.90607980726807 14.61399841
6.6650424387393 2.03987200095697 15.76699829
6.75057037042868 8.8746091750205 13.67799759
8.69075800108972 2.42259443360407 19.52899933
8.41576550692328 8.6955650519118 17.88299942
5.41039476249856 5.6594908287486 6.93399811
0.347511611826373 6.71612784341575 45.93700027
8.89452556492679 3.54867129262742 18.07099914
0.00914856561248278 6.6290602750745 46.89599991
8.81078271921057 5.52288712465197 14.51399994
9.05554031970649 5.96250917269378 14.30999756
7.28252599043258 8.0186604508867 6.99199676
9.1716155351117 6.53208547958218 13.60499954
9.28639656318637 8.37411569529367 10.69599914
9.4683191374268 9.4729253660769 9.20399856
8.75542274046771 7.51017871142996 17.83899689
5.47514875617521 4.62271289553295 6.91899872
1.54175644145006 0.987072921132134 6.92399978
0.689288634963946 2.3146859865261 2.88299942
1.82237195643198 2.76787468796398 4.61999893
3.34502797796915 1.62858819273919 9.78199768
5.70018115666763 1.81901223892682 14.6289978
6.30929711786169 2.06522022177594 15.52699661
7.81104531993814 2.24096193583428 18.5019989
8.57499517572981 2.30044992589009 20.04299927
9.04090261472652 3.75373304379504 15.56999969
8.69107039113503 2.87002623277849 19.33799743
8.84398531831148 3.06089655045942 14.51999664
-3.17149530780261 5.76588195274938 55.91799545
5.43685866205077 6.0501568939763 6.93999863
8.60208385537263 3.58597958946662 17.94499969
5.61924982135915 7.82011426352116 31.19599533
8.93770233190277 5.99423907586683 14.6269989
7.09053999401843 8.13665463371307 6.97299957
8.97962953869754 6.65007966240855 13.55299759
9.16331488533647 7.14758312313032 13.13499832
7.36238627415717 9.86180634533143 4.63699722
9.14894494325248 8.44841989892677 10.89199829
8.38593225759671 9.73122730639423 7.03299713
9.3064787803845 9.00268909359526 10.25899887
3.38385359788555 7.22037000368622 37.47199631
8.97235531335688 2.48351049243841 14.34799957
0.946341015100058 1.60734566965849 5.17199707
1.49168477990271 1.17044587772576 7.10699844
0.687213472520138 2.46856039741313 3.18999863
2.23602100356421 1.27250816824161 8.54899978
1.73084167315782 2.96655475677752 4.63199997
2.90969013626294 3.32040342380864 6.59799957
5.58457452633037 1.92058363080005 14.77199936
7.61682796605752 2.28911462996047 18.57799911
8.48984657480972 2.26122266162973 20.49599838
8.5840768006183 2.803531780278 19.80799866
8.77430002463396 3.28684380751309 19.39899826
19.6492892224914 5.14864385037741 44.52599716
0.936701550844955 6.55747832755049 44.51099777
8.71146499837847 3.9460314302545 18.16999817
8.20369729331098 8.18498583643658 24.04899978
8.96847275136525 6.30087221890767 14.72799682
9.11770593872204 7.4706390571243 13.04899978
9.27300841838761 7.95506676309262 12.59799957
7.2949323379461 10.1575950910853 4.56799698
9.14910113827513 8.67213579851398 11.09399795
8.47985009335998 9.82610462586808 7.67299652
9.29132786318725 9.18494637145566 10.53299713
3.45784541147334 6.91038982444569 37.50500107
9.04395957445557 1.87997292491049 14.02599716
8.44361284810469 1.68941499727487 12.2879982
7.14469503972939 1.29745474471662 8.57499695
1.35200180250236 1.17490859265868 7.1289978
0.621678503730228 2.38675883269273 3.57299805
2.06141728181377 1.27808656190776 8.56299972
2.751219128995 1.42383883161688 9.80099869
1.57808294100402 2.9994003386838 4.63899994
2.75262488419887 3.43728192790177 6.4489975
5.48204365074657 1.99377215569992 14.82699966
4.45207135780361 5.42443963323178 6.80999756
8.42223644357601 2.33329550779637 20.62799454
8.52523590422777 2.93125468165813 19.81499863
3.7588555336987 9.76719678875355 6.98699951
8.69584549611325 3.45714100935326 19.34000015
3.45494464676694 9.00786584291745 5.59799957
0.982310497459382 6.23442239355651 44.55199814
5.43509588965226 6.65146310403776 6.90899658
8.71592771331138 4.08571440765485 18.30899811
3.4750714911144 6.57425813569826 37.77499771
9.01439408802498 6.42524808408811 15.0059967
9.09601714414806 7.66708776847138 13.08899689
9.20555448217655 8.25085550884646 12.33499908
8.20255930100309 9.68115564484688 7.74599838
9.23217457675141 8.86523747366137 11.31799698
4.13120215412676 8.5108532808383 7.02399826
7.69343046788107 8.84448584922329 16.68599701
8.73643388842814 8.44761661023884 19.0949974
1.13147674409219 1.05611112114438 7.23099899
0.872349201512268 1.91732584889902 5.24099731
1.82781646865014 1.18767195736683 8.53499985
0.696138902385975 2.74792635221384 3.48699951
2.45654606197439 1.3913056397559 9.55899811
2.96966902496137 1.69651071401821 10.16599655
5.31397780637285 1.98515911587938 14.83799743
4.30585050302653 5.44309378165138 6.87999725
8.35239495487583 2.33552686526283 20.82099533
8.78349321739577 7.07582266700899 18.10999679
8.57146963093281 3.503062346013 19.37799835
5.03472341944547 5.2799815508532 6.83699798
8.99701181336126 6.53766387324833 15.17499924
9.11355561383443 7.77838787889837 13.33099747
7.11586590126274 10.0234905073511 5.20999908
7.63505815655849 9.64335644936506 6.93199921
9.14894494325248 8.44841989892677 12.25799942
9.2039479048007 9.07587761849513 11.29199982
21.5568544069928 5.11566438702314 44.49899673
5.45729789644353 4.06398098593154 6.98299789
8.8728367703528 3.7451200039745 15.67699814
1.2234756124343 1.52857875109248 7.05199814
1.64667486952298 1.20744178451966 8.52699661
1.0058066915812 2.37448636662721 5.15999985
2.18594934201686 1.45588112483524 9.28199768
2.82775469009456 1.63113194025095 10.39099884
1.46263250568941 3.32468763014424 4.58599853
2.0891307415472 3.45847982383314 5.75
4.90800462892524 1.97016439370478 14.3789978
7.18677844154682 2.17701123084556 18.98699951
7.90926967561168 2.25180633312127 20.43500137
8.51615427933928 2.42817282727022 21.48499679
8.52793584676219 3.67224386911994 19.41199875
8.90075105225821 3.08704805996632 15.20100021
8.56109381871377 4.27243440044817 18.4699974
5.56647821727739 7.26249803265297 6.92499924
-3.37956939154994 4.72383801591288 57.16399765
8.89448093777746 6.6108523981482 15.24499893
8.97563540883258 7.18154438376983 14.43799972
9.00225550340744 7.79592634858474 13.47200012
6.93472430213557 10.0432603345039 5.17399978
7.42553369045796 9.65005052176444 6.93299866
9.14925733329778 8.89585169810119 11.92499924
3.42899395943202 6.22616637093061 38.12699509
21.2009528910925 4.91729670825491 44.5340004
21.4718620010953 5.30015302235 44.50299454
8.87843747759361 2.38863317296456 14.63399887
19.4614535509648 4.95888921142971 44.50299454
1.12748261422723 1.58757584250566 7.19299698
1.54414399393917 1.28063030941952 8.62799835
0.868355071647306 2.4487905702603 5.24300003
2.28194234022394 1.39688403342205 10.06199646
0.849210024585085 3.16251256948198 3.99699783
2.74706880410739 1.73158765339095 10.51199722
4.30988926004082 1.84944795476933 13.74899673
2.66555731585763 3.77564497411567 6.93999863
5.05422548370232 1.95151024528518 15.19399643
7.12793754515628 2.30473413222569 19.13499832
3.89987732557893 5.42809905947677 6.89899826
7.9398839000515 2.3347235765749 20.85499954
8.52715487164892 2.55366437118389 21.75099563
8.66284371918431 3.08066637761225 21.17599869
1.31487201426048 10.5164419988413 1.78099823
8.5808636458666 4.45357599957533 18.66799927
-2.87552805345145 4.52596123578727 55.97800064
5.50333080097659 7.47425385621996 6.93299866
3.43968216169636 5.90422611566986 38.33299637
6.4645103432286 8.67401013878581 7.01599884
8.8793300205802 6.79310967600859 15.3769989
8.8928743604016 7.43587450779686 14.33399963
6.67050926453213 9.86992848650934 5.41799927
9.05040819753363 7.99014370246535 13.71099853
7.79435476608902 9.5963194339721 8.31299972
8.22409190055442 9.26099103391259 9.81099701
9.16472064054034 9.16102621941521 11.99899673
3.42613782187495 5.26146128388159 38.81799698
20.9477384457987 4.86945640417402 44.59199905
21.2186475558015 5.25231271826911 44.53699875
21.4895566658044 5.6351690323642 44.4640007
1.88413593110358 9.95293498426162 2.82899856
3.51871684315835 9.6909736176993 6.98299789
1.46122675048555 1.31124453385934 8.88799667
1.23701995225571 2.17134358288075 7.03699875
2.13795284291333 1.48537967054183 10.1269989
0.740141271624553 3.24989252786852 4.11999893
1.25980211198826 3.54090616864415 4.77599716
4.18120687495012 1.97940221361592 13.7899971
2.53687493076692 3.90559923296226 6.97999954
4.92554309861161 2.08146450413177 15.25699997
7.42468577462071 2.18339291319963 20.5359993
8.51200395445167 2.73592164904428 21.92799759
8.57354479337661 3.34918793512596 21.08399582
3.93682860522349 8.33529007537728 7.02199936
8.55917485129262 4.65002471092241 18.85699844
8.64682257257514 8.26870636857814 19.34799957
8.09099142768012 6.18908120983806 25.7939949
5.44895261951898 7.74165973500045 6.90899658
3.43028814676256 4.95371246210752 38.99499893
8.92317619479613 7.07135995207607 15.57899856
8.92364477986408 7.7425076508377 14.43099975
7.13755469583672 9.82704179600399 7.05699921
7.45822307734159 9.57909335433103 8.1629982
9.12917511609965 8.2672782997996 13.97299957
8.99219208123371 9.01273020219433 12.41599655
0.644773053508082 4.20375321763055 46.94699478
21.0178923245442 5.31465684588198 44.51900101
21.3171843015204 5.71058891473052 44.47800064
8.56774326396382 7.54413997206947 18.55899811
8.63711616759604 6.87076091584138 18.26299667
1.49184097492537 1.39416177731297 9.49199676
1.14979618889182 2.28599072950743 7.29599762
0.890668646311898 3.14720545726206 5.30399704
3.53940152687242 1.8041513982002 13.31199646
4.29027562791065 1.89202225522937 14.7859993
7.13224406506655 2.22070121003883 20.48199844
7.67805641493716 2.45494911686773 21.24399948
8.44200627072884 2.51443710692353 22.83599472
8.63093530741395 4.27020304298171 20.31999588
8.56810028115845 4.92939066572312 19.04099655
5.48282462585983 3.11235165363597 6.9489975
1.54394317176719 4.11909551535308 44.58599472
5.38803656068463 8.02325704726761 6.99399948
0.895599946312773 3.95803613342405 46.4189949
8.83818378889869 7.25584858740292 15.72399902
6.30822606627779 9.909468140815 5.78299713
6.63543232515938 9.64732826565536 6.90499878
8.96733475905735 7.79704202731797 15.10699844
7.86180870230009 9.30053068821825 10.17499924
8.99395485363221 8.41142399213287 14.14099884
9.06857144731061 8.99630741124119 13.26399994
3.42981956169461 4.28256476334589 39.4620018
20.4392343927673 4.92765020689928 44.63699722
20.67522275842 5.3116221997276 44.49499893
20.9810526127729 5.69336283508946 44.49100113
8.82022136129369 3.41121967269353 15.93699646
19.1194087649313 5.85071816362417 45.01800155
2.17079842481961 1.63813840269563 11.26999664
0.860210616894729 3.28800411339565 5.71199798
1.22887549750314 3.0105571260161 6.98299789
2.86713814937756 1.76969923891807 12.60400009
0.982823709676667 3.84338898679737 5.04099655
4.38196210620746 1.91705808600305 15.69599914
2.1769792850017 4.2386962755553 7.01599884
6.47751915725806 2.29754916118369 19.62799835
3.09239368561663 5.53779259252791 6.89299774
7.33746201125681 2.29804005982631 21.52899551
19.1473230468367 5.19264621961599 44.48399734
8.61848433275111 5.19344950830391 19.43999863
8.92404642420804 2.06557723897058 15.15599823
5.36427260366685 8.37358016950172 7.05899811
3.53873211963249 3.97146890537213 39.36299515
5.97816366983913 9.20690292892562 7.00899887
6.03970450876408 9.8201692150073 6.11599731
8.88426132058107 7.60394035217058 15.98299789
7.33592237460495 9.47114028010373 9.47599792
9.0400323853146 8.75951575690053 14.31999969
3.48611671057338 3.63756857409116 39.78100204
20.2100962945366 4.9769185797587 44.81299972
20.4133952733057 5.43184774002043 44.47600174
20.7257630050353 5.7993969418956 44.52899551
2.51494068687163 10.0026942557637 5.20599747
2.06172967185907 1.72551836108218 11.59199905
1.07834812281579 3.11324419662255 7.17499924
1.33140637308694 2.93736860111623 7.98699951
2.85406239462411 1.79808210589144 13.23099899
0.85414132458596 3.97334324564396 5.25799942
3.60493649566233 1.8859529629206 14.73099899
4.27512471071339 2.07427953308977 15.89399719
2.03091462524727 4.48106632356211 6.99599838
2.65357492626274 5.3700391381995 6.89699936
6.61943349212487 2.36292793495095 20.54099655
7.42484196964336 2.40710881278684 22.2369957
8.15610243855141 2.53755397027605 23.59000015
1.51292730298341 9.71310868376658 2.36899948
8.5532617540065 5.55907974275793 19.4109993
3.85484853190578 9.70819969734037 8.49899673
4.08184452696868 3.46472762473922 38.33299637
8.73917845811189 6.12642469217988 18.85299682
7.10049184831883 3.6339537749955 30.15199661
5.84756231732726 9.71444749824645 6.54499817
8.93033885226346 7.95203211693823 16.21500015
8.39853942728221 9.03169674065923 13.2159996
5.13361718235894 3.12350844096827 35.7899971
19.603211690809 4.80055208560976 44.54500198
19.9025036677852 5.1964841544583 44.47099686
20.2301785117347 5.60549197806029 44.49499893
20.5840048651912 5.95773406771556 44.63699722
2.1826469329665 9.23028755517411 3.72799682
6.16791830878683 9.01906725739907 14.10299682
1.72990450302191 1.62425935925425 11.63499832
1.47731483781872 2.47128265352221 9.71699905
2.51569934841022 1.71101453755019 13.23299789
1.01312554407119 3.47887443107658 7.03899765
1.3207181708226 3.25930885637698 8.08799743
0.897987498801886 4.25159352171144 5.50499725
3.96945105138313 1.91625479731512 16.10199737
1.91323283246621 4.73651212632237 6.96500015
6.04970099021382 2.25528725076895 20.10299682
2.53366177601522 5.55564345225959 6.94099808
6.82018872338221 2.30058380733807 21.70699692
7.31146669677256 2.57852169336025 22.30499649
8.22594392725158 2.53532261280959 24.37799454
8.42971149108864 3.66139947183295 22.94399643
3.43693759201261 8.22541803372883 6.28399658
8.64526062234861 6.03154737270603 19.4699974
7.81628900998432 3.49922441117069 28.37399673
8.70026358389684 6.65900509227439 18.5019989
6.49775756947884 3.14983845907249 32.15199661
5.67726511548709 9.63599296972574 6.9659996
8.87741105315904 7.17069998648284 18.01999664
8.68589364181284 7.95984186807084 16.27399826
8.07771485075469 9.05592928274498 13.15299988
19.2364657776217 4.70040876251506 44.52899551
19.5553713867281 5.05376653090356 44.61899948
20.0971896067337 5.81947915909374 44.51299667
8.58798167618461 8.39642926995827 20.00999832
8.54605446938984 7.74058868341655 19.41999817
1.81313413652084 2.04107693398885 11.64699936
2.27779201533633 1.70463285519612 13.19599914
1.23333821243605 3.15024010341645 8.5739975
1.75906834510853 2.75591461194376 10.3449974
2.86506298693376 1.92357364980511 14.13899994
1.11820016716675 3.92295919405131 7.00999832
3.80792308438614 1.89345032400791 16.26099777
1.11213087485799 4.60829832629962 5.86299896
1.74739834555895 4.79774057520202 6.97799682
5.97332162413691 2.27171004172209 20.36800003
6.66312347131814 2.41746231143121 21.64500046
8.14302668379795 2.56593683724941 24.6609993
8.32718061550484 3.73458799673281 23.09799576
8.68096234181196 7.14901119190885 19.27099991
8.01035016884228 3.22735581745728 28.00500107
7.05856464152406 2.97811318845378 30.72499466
5.61842421909656 9.76371587110587 7.14099884
8.76403578028824 7.34211286705624 18.01499939
7.61051322442744 8.87510007366312 12.95100021
8.90626250520036 7.85492343999792 17.47399902
8.47699395580292 8.86139953881906 14.8449974
19.2627734821513 4.86735892815555 44.84699631
19.7872094274932 5.74548734550595 44.46899795
20.1955701574299 6.05403945596794 44.81100082
8.64557301239392 6.47897917188045 18.6309967
5.32114046384019 2.86583128074155 6.99499893
1.86782470802376 2.22110285438279 12.05299759
1.2073428979518 3.43072173695038 8.58599853
1.58908353331366 3.12489188259747 9.92199707
3.01574655664375 2.04460247878586 14.83799743
1.05074623095569 4.21874793980516 6.97999954
1.47394548804436 3.89761097323233 8.41399765
1.14720781423073 4.8308985471536 6.16899872
5.64149645529975 2.17045103989417 20.39400101
2.05130923249071 5.55707152103812 6.93999863
6.22876742689718 2.38939183450315 21.31299972
7.81343287242725 2.53451932412167 24.53300094
8.2436385919606 2.87033862282379 24.91199875
8.43656175851068 4.09463983752069 23.30399704
4.02182101112093 8.15080144005043 6.92399978
4.38441659942057 8.55869358491919 7.03899765
8.46635038068791 6.12115868855903 19.95199966
5.04199764478613 9.44655072082335 6.98999786
8.63042209519666 6.66123644974085 19.43599701
7.87258615886308 2.85422822191596 28.62799454
5.3762103661124 9.84136711093866 7.03899765
8.63089068026462 7.33238414850248 18.31399917
0.571249824988248 5.18488109563271 44.54099655
7.45775449227363 8.9079456555694 13.11899948
8.70550727394302 7.91726756761079 17.51099777
8.33077310102584 8.88005368723866 15.06999969
8.82812036672496 8.47265244101252 16.8239975
18.7475753567205 4.71602826478028 44.57899856
19.04032945632 5.1261517671155 44.4869957
4.76189534202149 5.27471554723236 55.86600113
19.6738341546224 5.91690022607935 44.53200149
18.6285993766089 6.24392797636363 44.70799637
5.4909690806124 2.27313811050062 6.9699974
1.92650940939164 1.86966405341545 13.34199905
2.67084563305314 1.9717263439313 14.80899811
3.47625411057163 2.01590722176719 16.49699783
1.03128879384816 4.48503813985241 7.09799957
1.46102592831356 4.1497097397929 8.58899689
1.16043976400683 5.02623157976745 6.4679985
5.56304192677904 2.34074824173434 20.54800033
7.66513685520636 2.7070478834283 24.55199814
2.85334836023485 7.02758071858414 6.89399719
8.2174870824537 2.92710435677052 25.38000107
3.15917821458776 7.409321353946 6.92599869
8.38809667433918 3.45299068446565 24.8639946
3.47377730378386 7.84671204452135 6.8769989
8.27072727160342 4.15586828640033 23.4640007
3.7861450355135 8.21426124639653 6.95999908
4.12035775683977 8.60907763651184 7.00099945
8.54081077934366 6.48232620808014 20.18500137
5.13607167557205 9.76514393988441 7.31999969
8.64381023999542 7.08028538194191 19.38199997
8.71842683367382 7.66516880105022 18.55499649
4.3471529297307 5.20407076984426 54.65399551
7.67397303077354 9.11077604927055 13.90099716
7.94664491317487 8.89232615330418 14.85199737
8.83927715405725 8.8218598845134 16.89199829
18.7651138264069 4.82732837520727 45.05099869
18.9138784286957 5.32594751466227 44.5170021
6.10387834949945 4.82634657792203 59.15299606
19.1847875386985 5.70880382875736 44.49200058
19.5582275242852 6.01847161795258 44.75600052
2.3194068320858 1.91304164256342 14.82799911
3.20119467568119 1.94079972944617 16.71299743
1.23443157759462 4.71625140052692 7.86199951
5.29021384935506 2.3354822381135 20.64599991
1.93824634966522 6.17591620078595 6.99300003
2.25938331623804 6.59911545787462 6.96899795
8.19771725530087 2.74596275764335 26.33199692
3.16042777476897 9.19904855064368 4.65799713
3.46148252414367 8.99367440943077 5.64099884
3.54917487257552 9.55017496156572 4.91999817
4.9963886981717 9.76960665481733 7.68199921
8.94412864140618 2.69415063727217 16.42799759
6.98847770350258 8.88099085737457 13.48399734
8.68781260923399 7.58225155759659 19.35099792
4.91418548910734 4.57072226656445 55.87299728
7.88987917922814 8.86617464379728 15.47499847
8.76289778798035 8.83828267546654 17.39299774
18.1451534679258 4.67934474803169 44.68099594
18.3899110684217 5.1189667960735 44.47600174
18.724123789748 5.51378318618881 44.49200058
19.0299536441009 5.89552382155067 44.49999618
15.3733389095154 4.79586623493019 56.9679985
8.9022014346114 2.03831005073044 15.72099686
2.09903796869827 2.01796007063634 14.80799866
1.74391742791128 2.93817188980416 12.52999878
3.00697732180057 1.98895242357237 16.8409996
4.45642250486321 2.27822560552415 19.54499817
1.09744854272868 5.46170330292165 6.98399734
5.14622435204444 2.42397787523327 20.84799576
1.11976211739328 6.16011818992341 5.85199737
1.47535124324823 5.91105406951723 7.03199768
6.90980003923522 2.47949404899878 24.61800003
7.64106050814327 2.60993920648799 26.00299454
8.22833147974069 2.82888000109698 26.89500046
2.0574900926728 8.15762939389779 4.61599731
8.18734144308184 3.51533481207852 25.66599655
2.37862705924563 8.58082865098646 4.62399673
8.24888228200678 4.1286010981602 24.78899765
2.72160901541509 9.03129509631527 4.59999847
8.35188174265855 4.72656027202197 24.04600143
3.04928385936464 9.44030291991726 4.65699768
4.71686654834834 9.55481618509595 8.09899902
8.60681433320152 7.23527547156217 20.42300033
7.32460939225001 8.89821693701564 14.84199905
8.62689655039966 7.86384886986376 19.43899917
14.8739164813725 5.35714189204337 56.02999496
8.47683776078027 8.63768363923185 17.80899811
15.0162994013072 6.09366836457226 56.94900131
17.7959460244249 4.69050153536398 44.59000015
18.1236208683745 5.09950935896597 44.59599686
18.3814542236239 5.51074854003443 44.45699692
1.06554013095831 6.65123996829111 46.92799759
2.10334448860854 1.93392714844948 15.62599945
2.05581657457296 2.6345733929177 14.33199692
2.84768071227004 2.03598943896533 17.05599975
1.93190929446047 3.35164242833907 12.92299652
3.60509269068499 2.10966886250781 18.62599945
4.10944641882879 2.35922388155662 19.34700012
4.921392773724 2.38921332590584 21.05900192
1.26136406221478 5.77806516451625 7.47699737
0.934626388401147 6.71135273843752 5.23699951
6.66966134869487 2.40327087794453 24.87900162
1.14669460201344 7.22193195391274 4.81099701
7.27654595242247 2.57963737209347 25.92699814
1.39145220250936 7.66155400195456 4.64699936
8.03395793083742 2.65331679563596 27.45199966
1.72566492383564 8.05637039206987 4.71399689
8.26563977657989 3.12132171065114 27.17300033
8.19626687294767 3.79470076687923 25.89500046
8.32365507070783 4.93720041685572 24.29099655
3.40980428522047 10.0020694756731 5.20800018
3.92899654051622 9.62193541768705 6.91799927
6.56942877130152 8.89437900217333 13.86599731
8.56104919156444 7.33461550596894 20.8639946
1.86467849399605 10.2192251843089 4.28399658
8.67536163457115 8.5054980229188 19.13499832
0.214210316780093 6.48268322527477 44.56000137
17.6628009244013 4.68077281681022 44.99899673
18.3948423684226 5.92979747223549 44.44800186
4.43754522069696 6.50156050944102 55.96300125
1.89205725010951 2.54192743091031 14.64899826
2.62938701132632 1.98703345615121 17.18999863
1.75507421524357 3.28737933330504 13.12599945
3.31918885850756 2.13278572586033 18.45100021
4.75332692935029 2.3806002860853 21.22999954
1.27267704456973 6.35098850760434 7.02999878
6.4885197495677 2.42304070509736 24.93400192
0.863022127302468 7.31489030596544 4.57999801
7.11724934289194 2.62667438748644 25.9659996
8.15433966615291 3.13886018033751 27.43299484
8.22895625983131 3.72374359944582 26.62199783
8.36464510736669 4.25074560587418 26.05699539
8.26258281685084 4.99508182953568 24.57699966
2.22265517234012 10.2637184521901 2.67199707
3.3291183992333 10.1025251888131 5.33499908
3.80685203280224 9.73769824304696 6.9679985
4.24312704464436 9.38817840950077 8.52199936
8.47382542820055 7.44926265259562 20.9869957
7.48390600178054 8.85117992162268 16.48699951
4.55268326596626 5.72884141880616 55.82999801
4.70927993296238 4.94081521595139 55.80499649
17.4360503786597 5.02359857795703 44.44499588
18.0477100873655 5.78707984868075 44.51099777
18.4146121955754 6.11093907136265 44.72600174
4.26615465369822 4.85709468380984 54.56499863
1.89875132250889 2.75145189701084 14.81599808
2.82806708013986 2.07856373942537 17.92999649
1.72907890075932 3.56786096683897 13.07799911
3.55932754904791 2.20900889691458 19.32199859
4.23605364147569 2.38314403359707 20.55900192
4.49564976912356 2.19307700460406 21.42899704
1.20044800338044 6.05966247678342 7.8429985
0.819175953086543 7.03664002989796 5.39399719
1.24891308755194 6.70131162983846 6.91699982
6.81380704102814 2.53849114041196 25.92699814
0.656041408713701 7.83885766623941 3.74599838
8.07780410505335 2.93156707170344 28.08199692
0.903498951744039 9.01946890174304 2.3449974
1.21809804094014 9.45685959231839 2.2879982
8.18127215077307 4.20067394432684 26.21500015
8.29734736617828 4.77025025121524 25.53499985
1.91713770803251 10.3294096160026 2.3789978
8.40034682683004 5.368209425077 24.77299881
3.59732756670171 9.74439231544634 7.01099777
4.08159907764737 9.36537393619356 8.69599914
1.6245398034557 10.1430020132546 3.57899856
0.677462440391711 4.13279605019714 44.55599594
17.2196756451372 4.59705228466867 45.20299911
17.3292129831656 5.18082002504375 44.4640007
17.9845626710647 5.99883567224774 44.49200058
10.4499825412209 5.62432463507721 44.48199844
2.18418656961836 2.05718733489669 16.96699905
2.82599191769605 2.23243815031241 18.13899994
1.72046586093879 3.73592681121269 13.21500015
4.45865386232967 2.34806709422433 21.5340004
1.09137925041991 6.14704243516996 7.90499878
1.11799934499477 6.76142439998487 6.94699859
6.67635542109425 2.61279534404506 25.96500015
0.954864800621932 7.56364203632632 5.27599716
8.06903487021017 2.87591701648994 28.55699539
0.757278096966962 9.03812305016264 2.39099884
1.07187718616306 9.47551374073799 2.36699676
1.36463128576252 9.88563724307321 2.37599945
1.52870300027127 10.425715004255 1.80999756
8.24535673720978 5.33121351828311 24.92699814
2.8379966208656 10.0483032023781 5.30899811
3.35065099878463 9.68236057787877 6.99699783
8.39412133949862 5.82983265773811 24.42599869
8.52327230965729 6.37102609765315 23.77799606
6.10015198253046 8.8674242039785 14.37199783
8.39983361461276 7.75924283183615 21.23199844
2.98406128062003 9.80593315437129 6.92899704
11.044259975263 6.50022169496114 46.71300125
16.6870952450426 4.55813741045362 44.54299545
17.2241383600701 4.73673526206902 45.42100143
17.8908010303241 6.1276742523611 44.55499649
0.0397627900523041 6.71197751852813 44.56299972
2.32610090448518 2.12256610866395 17.61599731
1.92298386459463 3.07227647353836 15.19799805
2.23057649134605 2.85271089883876 16.23799896
1.75331144284507 3.88868554336649 13.48600006
2.01290757049295 3.69861851437349 14.39499664
3.83008046402808 2.36814931142246 20.54999924
6.19400287756974 2.61422341282359 25.35100174
1.12692477486061 7.04079035478558 6.99699783
7.00594923246496 2.64421285717281 27.06399917
7.7633612108799 2.71789228071529 28.61299515
0.464680192390151 8.85171544741462 2.53099823
7.95358443489556 3.20120430795038 28.25199509
0.478224532211559 9.49448027920289 1.55599975
1.03327470199331 10.4555259400069 1.15499878
2.52147856424835 9.98850282227699 5.20299911
8.28266503404898 5.62365522783727 24.99399948
3.89407579616613 9.62305109642028 8.75099945
8.3376679955972 6.25111294740563 24.04099655
8.42536034402905 6.80761349954058 23.34399795
6.5279701495747 8.90968611439324 15.67499924
7.6256641416247 8.69284279580272 18.46099853
8.47860053317877 8.03637742917039 21.4109993
3.88515036630029 9.34368514161957 8.98699951
4.2194077147759 6.67632042621411 55.83499527
16.4491879119687 4.55175572809954 44.5439949
17.0211517713463 4.72923790098172 45.48799515
17.0477718659211 5.34361986579662 44.50400162
17.6528936972502 6.12129257000702 44.49899673
4.19916930255511 5.82403112832531 55.28300094
2.04497217728597 2.73279774859124 16.51199722
1.82076537905613 3.59289679761265 14.61100006
2.07382362932728 3.41702120210632 15.46299743
3.57032814135755 2.33450044082825 20.50299454
1.84961683109745 4.27712025112773 13.54599762
6.01062992097611 2.56415175127625 25.52699661
1.38859606495229 6.69684891490554 8.56599808
6.83134551071451 2.64979125083895 27.1649971
0.863334517347772 7.76232210513986 5.70499801
1.23199939795618 7.48487511776031 6.93399811
7.33569923885831 2.89934626988776 27.89400101
7.58875748912946 2.72347067438144 28.7389946
0.597669097391126 8.63772826638118 3.64799881
8.06695970776636 3.02979142737698 29.27099991
0.366924421784569 9.51201874888926 1.72399902
8.11542479193785 3.67144058043202 28.34599686
0.79983008385234 10.5888272350532 0.89599991
2.39056482169118 10.0486155924234 5.27999878
2.8617605778834 9.69798008014398 6.91799927
8.18013415846517 5.69684375273713 25.10999679
8.39220237207747 6.20742296821235 24.73199844
5.7574824164063 8.86438955782411 14.59700012
8.29667795893834 6.93756775838717 23.30699539
8.42582892909701 7.47876119830221 22.72499466
8.41975963678824 8.16410033055052 21.5399971
3.55669454723748 7.81609782008153 6.95899963
0.385645510928162 5.06496794538518 44.56799698
4.55221468089831 5.05769372004453 55.79999924
16.4056541277981 4.72093725120649 44.64599991
16.6237916337192 4.54617733443339 45.39899826
16.6853324726441 5.15944362051507 44.52199936
16.9846244496203 5.55537568936361 44.5399971
17.3188371709466 5.95019207947892 44.54800033
17.8297287764671 6.18555566504105 45.27799606
21.8405268817037 5.02270603497045 55.92200088
0.520397188327641 4.24967455429028 44.50099563
2.34140801670508 2.16402473039076 18.51999664
2.14158995558365 3.5686642555269 15.79199982
3.96530072649551 2.22400361908919 22.0359993
1.84754166865365 4.43099466201476 13.77099991
6.04124414541594 2.64706899472987 25.91199875
1.33629304593849 6.81038038279899 8.73699951
6.73758386997389 2.77862983095232 27.2159996
1.14477563459228 7.59952226438699 7.00899887
7.54299234749238 2.82281070878821 28.92200088
0.5911312200144 8.65191969986786 4.09999847
0.905261724142543 8.41816269168158 5.15599823
8.0538839530129 3.05817429435034 29.67399978
0.720282190173066 9.1931131397829 3.48499679
7.99104892675741 3.71736191709175 28.47099686
0.179713530348632 10.2171277082904 0.632999420000004
0.493844034476774 9.98337070010413 1.72399902
0.337247367480659 10.7713969029589 0.0699996900000031
0.821518878426325 10.3923785237061 1.73999786
2.15265748861729 10.0422339100693 5.2559967
2.65877398915959 9.69048271905668 6.9109993
8.33097392319782 6.0415884813051 25.3639946
5.55226447021604 8.78705070803663 14.76199722
6.04354244360639 9.06498859405881 15.35899734
8.43221061145108 7.24085386522832 23.61099624
8.5095271476639 8.56672647179844 20.56399917
8.50506443273098 8.42704349439809 21.75899887
8.64780436986038 6.54882066058063 19.35599899
5.05371227148504 4.34254365204432 56.75500107
16.0497526118979 4.52256957243826 44.70399856
4.30060681298036 4.18483130631497 54.61600113
16.3970410879776 4.8890030955802 44.8429985
16.5541063400417 4.77212459148707 45.37499618
16.6352608110968 5.3428165771087 44.57199478
17.2054618980758 6.12160496005233 44.51900101
21.9739843717727 5.47986655269863 55.93400192
1.9663614537426 2.67937905084421 17.33399963
3.26481067704994 2.40019160464082 20.62799454
2.03490875511223 3.94960160220083 15.44999695
1.91977070984293 4.72232069283569 13.91899872
5.73126396617541 2.57307718114208 25.82699966
6.33161069252628 2.76363510877771 26.85599899
1.46305646360804 7.05801643442664 9.07699966
7.33554304383566 2.67563037030055 29.15099716
1.12754955495122 7.93565395313442 6.92899704
7.887893271083 2.89568684364277 30.0439949
0.711356760307229 8.91374718498219 4.41399765
0.929494266228291 8.7389872682091 5.19199753
0.266781098689876 9.87876466207651 1.84799957
8.13311945664687 4.00645659044622 28.73299789
0.151643053420575 10.6514837527114 0.308998110000005
1.89290516594676 10.0085850394751 5.20800018
2.41209742124252 9.62845098148911 6.94599914
3.47710202640888 9.482564830332 9.5359993
8.11268022225411 5.99263249849098 25.43999863
5.34050864664905 8.72390329173584 14.86999893
7.16946310760709 8.63750513063453 19.0019989
8.37622585261762 8.33328185365747 22.14699936
15.8686110127707 4.54233939959109 44.74699783
16.4144233626413 4.77658730641998 45.56599808
17.0177824215719 6.15556622069184 44.56000137
21.1899522987829 4.79180516434124 55.89999771
21.8169191197086 5.59674505679177 55.87599563
5.04811156424422 5.69903048305426 30.19599533
3.34119004312685 2.38376881368768 21.25600052
1.94768499174834 4.06424874882751 15.45299911
1.8870813229593 4.7932778602691 14.15099716
5.68549882453833 2.67241721554885 25.97700119
1.46751917854096 7.19769941182699 9.27599716
7.28547138228831 2.85900332689418 29.19099808
7.94912171996264 3.06152133055003 30.31200027
0.888191839524129 8.97801028001622 5.12999725
8.01066255888759 3.6747876166317 29.45899582
0.253861538959075 10.1308634286371 1.82799911
0.0427304954826955 10.9625796106851 0.0119972199999978
0.561922750778448 10.5824455526991 1.76299667
1.0811150060742 10.2023114947131 3.49199676
2.65223611178287 9.70467415254336 7.77699661
3.20411775396225 9.25358292712395 9.75999832
8.18921578335366 6.19992560712505 25.666996
5.34943407651489 9.00326924653654 14.84199905
8.24421874490188 6.82738332669341 24.77999496
6.92055518222355 8.50563190436679 19.10999679
8.33414245080019 7.45372536752854 23.93600082
7.80888090319567 8.51919855776286 21.02799606
15.6023208127234 4.52288196248356 44.66199875
2.76088090682477 5.88396538987441 24.19800186
16.2026675390743 4.71343989011918 45.62699509
6.30873927849508 7.51843473405586 34.76499557
16.3732771309598 5.23932621781432 45.11999893
16.4958902237417 5.79471109121604 44.48799515
16.8519479346647 6.21679466957148 44.53300094
21.0874214231991 4.8649936892411 55.97199631
21.332179023695 5.30461573728291 55.75600052
21.6445467554246 5.67216493915809 55.84699631
4.79645906917694 7.88834917484548 30.9869957
2.56847095249198 2.26863076841838 20.19699478
2.12389529087463 3.2336482455127 17.64199829
5.51089510278789 2.677995609215 26.02000046
7.12171205782486 2.76635736488679 29.42599869
1.63797257540379 7.49986983993491 9.61199951
7.82458965975954 2.88372676762255 30.78499985
1.18032115903298 8.4932701840026 7.0059967
7.95374062991821 3.42492020753759 30.19599533
0.940807248583239 9.31191061129719 5.15399933
7.90621271588263 4.12556645200582 28.93400192
0.319552702771638 10.4363808929447 1.93399811
2.13496282390827 9.70721790005512 7.12199783
5.07644980406826 8.77428734332849 15.06999969
8.19590985575304 6.40945007322558 25.84799576
8.21599207295117 7.03802347152717 24.8370018
6.91194214240302 8.6736977487405 19.27399826
8.33206728835639 7.60759977841557 24.12499618
15.63947291454 4.59160777245051 45.07799911
8.75209801784269 5.87432592561931 19.08399963
4.25609123152449 6.07389853741943 56.00400162
16.2642083779993 5.32670617620086 45.18500137
5.70937434942944 5.60799109842272 59.67399978
16.3584386038078 5.86901529484913 44.52999496
16.6642684581608 6.25075593021099 44.57300186
16.9238645858086 6.06068890121799 45.42999649
20.8713590797218 4.88587919512716 55.95599747
21.0942716906211 5.29823405492884 55.76399612
21.4131772997275 5.65159182331734 55.82199478
4.35815352204034 5.32956231375793 55.86500168
2.39386723074154 2.27420916208452 20.17799759
1.98421231347428 3.23811096044562 17.74499893
2.29180494022569 3.01854538574602 18.79299927
1.98561806867815 5.25155405673051 14.45899963
5.37998136023072 2.73810837936141 26.06299972
6.98426043789097 2.84066156851988 29.45000076
1.50705883284662 7.55998261008133 9.67599869
7.77005528327928 2.92741674681582 30.98799515
7.88613049868449 3.49699305370423 30.34199905
0.825200618245981 9.41348200317042 5.15199661
7.78406820816865 4.24132927736572 28.90700149
0.662066073873142 10.2156996395119 3.45499801
2.07612192751774 9.83494080143526 7.1989975
2.95744118604517 9.19155118955638 10.18299866
8.16545182633587 6.55024872935916 25.95799637
8.34960575804276 7.71889988884256 24.40099716
8.43076022909788 8.28959187446419 23.65499496
15.1265061465757 4.51011859777541 44.55299759
15.7813872494068 4.65698654621776 45.75500107
18.4407637050823 6.05417333741593 44.72099686
5.81143663994529 4.86365487476123 59.55900192
16.2229059512951 5.56572918800798 45.18299484
4.39037432385601 4.58745744756289 55.55099869
16.3520569214538 6.10692262792303 44.54299545
20.5809925326115 4.76931308107933 55.95000076
21.47886846354 5.95710928762495 55.89300155
14.5947067215944 5.58978322149642 44.53200149
2.2042687868165 2.68576073319828 19.62999725
2.10443785376711 3.49993844555995 18.08799743
5.15945630182054 2.61931090784712 26.27699661
1.98369910125699 5.62914436720476 14.39799881
6.77904249170071 2.7633227187324 29.62699509
7.40777208502495 2.96695640112148 30.70899582
1.27615796221741 8.21055719300221 8.60099792
1.74735371840962 7.85992168072279 10.21500015
1.20901641605165 8.95377773793047 7.25699997
7.91482575570316 3.9575006076321 30.19299698
0.622682614590135 10.0771323408447 4.13599777
0.930275241341551 9.85756676614515 5.18499756
7.99821158422475 4.59803408195391 29.31799698
2.78937534167146 9.18293814973585 10.34000015
4.05290382062871 8.90486638226568 13.60799789
4.89323304249728 8.94793158136835 15.37799835
8.0345380837787 6.61036149950558 26.07199478
6.46435414820595 8.45029423919859 19.62299728
8.25968205214445 7.09255784800743 25.81000137
7.3242970022047 8.45078513784122 21.53300094
8.27322639196585 7.7353226797957 24.77000046
8.35661222048744 8.37585615411751 23.88499832
18.5254437209345 5.42225290291465 44.47199631
15.2443441343794 4.47838869460236 45.38799667
8.83267233595653 2.48797320737133 16.61999893
15.6204840625004 5.52904567125939 44.48599624
8.43292464584035 2.01135525253562 17.59999847
15.9416210290732 5.95224492834807 44.46099472
7.59052026152797 2.12216446431999 19.81299972
16.3565196363867 6.24660560532338 44.88000107
16.5485056328009 6.12861142249701 45.47999954
21.1405054173261 5.8700417192837 55.88000107
1.97767443609755 3.2523023939323 17.75699997
2.51616793347818 2.38216223631182 21.35899734
2.27011614565171 3.2149940970931 19.41699982
3.21250765803614 2.51372307253427 22.67100143
4.10737125638498 2.51309829244366 24.62900162
4.90624185652674 2.57147060376623 26.33399582
1.75663616547009 5.52453832917714 14.57499695
1.96870437908239 6.03511754465236 14.2159996
2.07170383973415 6.63307671851413 13.47699737
6.92111302159017 3.05241739208687 29.98799515
7.78759375296565 3.03871685724281 31.93099594
1.23054901560298 8.53361312699619 8.5359993
1.79119989262555 8.13817195679026 10.41199875
7.80113809278706 3.68148168903108 30.88199997
1.14156247984058 9.24956648368432 7.13499832
7.88883044121891 4.23798224116603 30.20299911
0.902048569390841 10.0682069109789 5.27499771
1.42124082468659 9.6880728529929 7.05299759
7.98306066702749 4.78029135981431 29.50699997
2.70438293577402 9.3674267850627 10.39699936
3.96137353735454 9.10354645107922 13.58599853
