ply
format ascii 1.0
comment File exported by Rhinoceros Version 7.0
element vertex 1047
property float x
property float y
property float z
end_header
29.9407222108761 3.59900148572854 56.85600185
30.0776538125547 3.89056537595972 56.88799953
30.2563084618649 4.16755832605922 56.85600185
30.3583050427868 4.45961965948124 56.95400142
13.3060975483835 7.37200445425303 6.52600002
29.3516251121236 3.45364444000512 57.12699795
29.6059429434407 3.64569896526866 56.71800136
29.8865941736728 4.21475324879018 56.75199795
30.0235257753514 4.50631713902136 56.83299923
13.8097587791092 7.40676329721299 5.3949995
7.24144634345711 5.99079125448648 19.45099926
28.9673398837998 3.45911631510436 57.04099941
29.2915277566303 3.65017595398622 56.5009985
29.2965021885387 3.99952616155334 56.91000271
29.4402218170922 4.27701655484367 56.94299984
29.6877516215343 4.48314457704806 56.59799862
9.18768246421941 4.76107023313038 13.12200069
7.76646654118946 6.0531996481373 18.32000065
28.5840495418577 3.53445823171703 56.99600124
28.9567484891948 3.69687343352634 56.27500057
28.8647007720898 4.10351251523855 57.07800197
29.0219964543934 4.35285591464718 57.01399898
29.3248253602171 4.51626600283817 56.47199917
8.96467246372588 5.29536567369194 14.40100002
9.31103801214796 5.08078111724327 13.31899929
28.1288993856387 3.47105495168452 57.02300167
28.2726190141923 3.74854534497486 57.05699825
28.5568974343576 3.59075221948044 56.13899898
28.7074050897862 3.85416911582992 56.12200069
28.8161896975831 4.13215695231109 56.20400142
28.9181862785049 4.42421828573312 56.31899929
8.06929544701322 6.21660973632829 17.86099911
27.6951081964265 3.43530122234289 56.96299648
27.7835287235983 3.75550954964662 57.17600155
28.1861882597838 3.56807710069797 55.96199703
27.9689713997836 4.01842900280526 57.09400081
28.5474771039311 4.40154316695066 56.14399624
8.6164933203372 5.87337393464859 16.0899992
9.05309299089772 5.61557400099567 14.67999935
27.2331700133325 3.38597143925124 56.98799801
27.7649782379399 3.43430633596121 55.77500057
27.9436328872502 3.7112992860607 55.74200344
28.045629468172 4.00336061948273 55.84100246
27.8080485275468 4.49593301241258 57.08699703
8.61467972537059 6.23679763915656 16.61500072
4.49942547814826 4.33863733010899 40.22299862
3.35651865699357 5.05375337054095 43.9289999
26.8498796713904 3.46131335586391 57.06600094
27.4651339912612 3.48050637231049 55.57399654
27.6088536198148 3.75799676560082 55.62300014
27.4519102931047 4.51498094126183 57.0009985
27.8264228354085 4.31397243856317 55.82099819
27.9419954700803 4.57788677810349 55.81999874
12.7909640340691 5.05918379204096 5.11999988
13.1360445209149 6.71751430270471 6.74400043
-7.05926813821171 4.34947744630938 57.04499721
-5.1671600546527 3.73550818801492 44.00699901
-6.90197245590813 4.59882084571801 57.04599666
-2.15016710220715 3.59471103820754 44.56899929
-1.55808534430965 3.94967820847123 43.7320013
26.4364525628032 3.38333913569971 56.98699856
26.5452371706 3.66132697218088 57.08499813
27.2090025649776 3.65187555155492 55.44499874
26.8811875022139 4.18766332168901 56.95400142
27.3527221935311 3.92936594484526 55.47699642
27.0181191038925 4.47922721192019 57.0029974
27.4692897145847 4.263150325899 55.65799618
27.6130093431382 4.54064071918933 55.65900326
13.2448291287117 6.99550213918589 6.89199924
-1.39084079818927 4.89772202301409 44.76499843
-1.09977435114892 4.72585540057882 43.86300182
-0.98420171647706 4.98976974011914 43.99500179
2.69105366504735 2.98067959951422 32.5180006
2.9920689759045 3.50751339221318 32.60000133
4.05152970179575 2.82153923204461 29.10800075
4.44640632472455 2.57831023852339 27.84500027
26.016237427341 3.31943841247637 57.02400112
26.1385980888878 3.56927925507584 57.03999996
26.8508745577721 3.53118339737733 55.28700161
26.439613399745 4.0961130477748 57.00800228
26.6268696708969 3.99560879642547 56.40100002
26.9111480910622 3.83781567093105 55.49899959
26.5833330282985 4.37360344106513 57.02400112
27.0965907672475 4.10073512408969 55.40100002
26.8037107252405 4.63602545103293 56.86099911
27.2335223689261 4.39229901432088 55.48300075
13.3885487572653 7.27299253247622 6.94099903
13.8233348328592 7.37861630333128 6.12099933
4.10501520821087 3.14224500253918 29.43599987
5.14411185347711 2.49849133319316 26.07499981
4.1866477085077 3.47652682678376 29.74700069
5.9320515043681 2.3754570506587 24.09099865
4.14989909278439 3.84044797448257 30.37100124
6.19315736256014 2.55343807898138 23.71399975
6.84913984368098 2.48819011378285 22.09099865
3.82027043505412 4.73965944912463 32.46900081
7.60893250069027 2.35157977749837 20.17299938
4.12309934087788 4.90306953731562 32.01100063
25.7960359081957 3.56018019004339 56.94799709
26.0318032538543 3.43103150162151 56.19399929
26.515100403955 3.50801083540402 55.1279974
26.0485401445461 4.11565841981489 57.06300258
26.6937550532652 3.78500378550352 55.09599972
26.1990477999747 4.37907531616438 57.08000088
26.8025396610621 4.06299162198469 55.19399929
26.404854556785 4.59977427850046 56.86700344
26.8696012212272 4.35555039859756 55.42400265
27.0336849304058 4.59082030106534 55.32500362
7.81473925750058 2.57227873983445 20.00799846
8.11938175829094 2.37226512351747 18.97600078
4.11449771903626 5.28056673876445 32.58399868
7.92352386529743 2.85026657631563 20.12399959
4.26500537446484 5.54398363511393 32.65000057
4.45723607752513 5.79282959133172 32.53499889
25.2690259377 3.35803171336572 57.08699703
25.4195335931286 3.6214486097152 57.0539999
25.7940461354324 3.42044010701654 55.87399959
25.5700412485571 3.88486550606468 57.0049963
26.2152561572763 3.5542108717533 55.05499935
26.3657638127048 3.81762776810278 55.05499935
25.8642685325393 4.42577279570449 57.07199764
26.4745484205017 4.09561560458396 55.12100124
26.160309411488 4.60325638083634 56.52999782
26.5833330282985 4.37360344106513 55.23499965
26.7270526568521 4.65109383435547 55.23499965
5.11321855864597 5.72758162613318 30.89599895
12.9816091369586 0.779555660445382 5.31899929
13.7645743559412 0.307171170343798 2.81099987
5.85264713503024 5.63319178067126 29.04299831
7.75716020816083 4.41804169944685 22.81299877
14.0121041603832 0.513299192548188 2.54699993
6.00994281733383 5.88253518007989 29.04299831
7.79028163395094 4.78096796076398 23.28800106
6.7280124267114 5.76049578392711 27.19000149
7.38399490783224 5.69524781872857 25.55100155
24.9420295835213 3.46052573747841 57.0559988
25.0789611851998 3.7520896277096 57.12100124
25.6960291000372 3.40785893964821 55.13600063
25.8814717762225 3.67077839280685 55.05499935
14.7899291330605 7.53257497089631 3.29699993
25.5304841514855 4.54234031675804 57.03900051
26.154340093198 4.1840361317558 55.0539999
7.81380655151775 5.45152138201651 24.23900127
25.9720582539545 4.63389059067225 56.12100124
13.1470400881124 2.09102317949622 6.85999965
7.66645973303098 5.90087839774212 25.23900127
13.3152795206145 3.10893703555251 7.94200039
13.5142982505498 3.34370949482944 7.81099987
24.4655204602956 3.36947290675504 57.0500021
24.6092400888492 3.64696330004537 57.06600094
25.2127319499366 3.33087960586569 55.2300024
25.4049626529969 3.57972556208348 55.09899807
24.9102553997063 4.17379709274434 57.0500021
25.5554703084255 3.84314245843296 55.09899807
25.0539750282599 4.45128748603467 57.09899807
25.719554017604 4.07841236090074 54.96800136
25.1976946568135 4.72877787932501 57.09999752
25.8283386254009 4.35640019738191 55.08299923
14.0043834275254 3.4066153316711 6.74499988
25.7712259290526 4.76254183590328 55.77200222
30.0377443598895 3.54171261158345 43.87000179
30.1882520153181 3.80512950793293 43.80499935
30.3319716438717 4.08261990122326 43.85299969
15.1627420777956 5.24904127654495 6.76200008
15.3132497332241 5.51245817289443 6.77900028
14.0918712487144 6.6060663011569 11.20500088
15.4705454155277 5.76180157230306 6.7130003
24.0754420914785 3.45888832030856 57.05699825
24.4014435592755 3.28652425468244 56.07399654
24.8711646556262 3.39165058234666 55.07500362
24.3696693754606 3.99979560994837 57.09100246
25.0284603379297 3.64099398175529 55.04099941
25.1721799664833 3.91848437504563 55.09000301
24.6638966594428 4.54070289958819 57.1070013
25.2809645742802 4.1964722115268 55.12399959
25.4596192235904 4.47346516162629 55.1070013
29.4903703087688 3.38178462572833 43.94200039
29.6758129849541 3.64470407888698 43.81099987
29.8263206403827 3.90812097523646 43.79600048
29.9768282958112 4.17153787158594 43.76299953
30.1137598974898 4.46310176181712 43.84400081
23.6620149828913 3.38091410014436 57.00800228
24.3946555324005 3.3005977516233 55.12100124
14.249166931018 6.85540970056553 11.17299938
24.5733101817108 3.57759070172279 55.08900356
14.6907410334869 6.94695997447974 10.2869997
15.0838040614491 7.06715468546649 9.54900074
24.093173868552 4.21338528001537 57.09000301
24.7519648310211 3.85458365182228 55.03999996
24.2368934971055 4.4908756733057 57.09000301
24.8956844595746 4.13207404511262 55.0559988
24.3806131256591 4.76836606659603 57.12200069
24.9976810404965 4.42413537853465 55.17099666
25.1064656482934 4.70212321501582 55.25399685
29.1779448947218 3.52600169747274 43.85999965
29.356599544032 3.80299464757224 43.84300136
15.7058464081949 7.07227420497222 8.10599994
29.6721857950209 4.37155148790292 43.84400081
23.1078529048955 3.23505961123011 57.0579977
23.2651485871991 3.48440301063873 57.02500057
23.380721221871 3.74831735017906 57.0579977
24.0327241574651 3.40358921892683 55.07399654
23.5244408504245 4.02580774346939 57.1070013
23.8322441881567 4.5385680392275 57.04199886
15.9883112333937 7.27790478398577 7.69699955
24.2602422368756 4.65826530702341 56.15599727
24.6211787254294 4.48540379820646 55.10600185
16.279377680434 7.1060381615505 6.79499912
28.5471247483376 3.39521559188102 44.15500164
28.7665075588979 3.5877675603354 43.86099911
28.9238032412015 3.83711095974403 43.81199932
29.1024578905118 4.11410390984352 43.79600048
29.1976664445586 4.4202387402064 43.927001
22.7245625629534 3.31040152784277 56.9780035
23.4853501063443 3.24366123307172 55.05899715
23.6358577617729 3.5070781294212 55.02600002
23.7795773903265 3.78456852271153 55.07500362
23.2848701370359 4.37864005337239 57.04399776
23.4285897655895 4.65613044666272 57.09400081
23.7246306445383 4.83361403179457 56.60099697
24.2311003566122 4.57481921175998 55.0599966
16.4783964103693 7.34081062082743 6.64799976
16.7762508842847 7.1548705014513 5.66400051
28.1987694271521 3.47006006530284 43.99299907
28.4259351509691 3.71840857832979 43.79600048
16.9199705128382 7.43236089474164 5.74599933
28.5764428063977 3.98182547467927 43.76399898
28.7269504618263 4.24524237102876 43.78000164
28.7804359682414 4.56594814152333 44.04199886
6.74532966779252 2.55955248486879 32.37000179
22.219906445846 3.20577264336939 56.97599697
22.2937560328862 3.48425792304141 57.1070013
22.4442636883147 3.74767481939089 57.12399959
23.0962666239089 3.40294668813866 55.10800075
22.6015593706183 3.99701821879952 57.05899715
22.8889986277255 4.55199900538018 57.12399959
23.5477895901946 4.1931973771871 55.09100246
23.0744413039107 4.81491845853883 57.01000118
23.6915092187482 4.47068777047744 55.10800075
23.8701638680584 4.74768072057693 55.04199886
27.6174552416564 3.380499564152 44.20500088
27.8717730729734 3.57255408941553 43.81099987
4.36928190334471 4.03299994293695 40.05900097
3.21958705531501 4.76218948030977 43.78100109
28.2612089110024 4.41959620941823 43.97500133
21.7026691613703 3.19916079429114 57.13200283
21.8881118375556 3.46208024744978 57.05100155
22.0036844722275 3.7259945869901 57.09999752
22.6556874078216 3.38126645573788 55.09999752
22.8129830901252 3.6306098551465 55.0500021
22.4765664055199 4.54389482672941 57.06799984
22.7173081830869 4.76409634587466 56.78900051
23.2441419757859 4.46308103501751 55.11599636
23.4014376580895 4.71242443442614 55.06799984
27.1137940109307 3.34574072119204 44.31199932
27.4379818837612 3.5368003600739 43.77099895
27.5817015123147 3.81429075336423 43.81999874
27.75356813475 4.10535720040458 43.81999874
27.8623527425469 4.38334503688575 43.86899853
2.67238918199103 5.10542528198947 45.58499813
6.11649929417171 2.56850646230391 33.81199932
3.06907939988644 4.49877258396029 43.76399898
5.45372878617587 2.6478279244433 35.51700115
4.42142016778464 3.27750809684846 38.84599972
21.3543138401849 3.27400526771297 57.05899715
21.693891361732 3.07349420820515 55.95999813
22.0801663628192 3.20776241613275 55.22199917
22.2723970658795 3.45660837235054 55.07500362
22.416116694433 3.73409876564088 55.10800075
21.9359803812742 4.36989334393345 57.09200191
22.5947713437433 4.01109171574037 55.05899715
22.1146350305845 4.64688629403294 57.02699947
22.7666379661786 4.30215816278072 55.05899715
22.4523989571649 4.8097989390331 56.47000027
22.9103575947322 4.57964855607105 55.05899715
23.0676532770357 4.82899195547968 55.02699947
26.5742028730667 3.2416092799095 44.4669981
26.9187548265221 3.3904484279688 43.81199932
27.0624744550757 3.66793882125913 43.82900142
27.4129957268213 4.23599821839898 43.76299953
27.3976060781046 4.62756891678865 44.32099819
2.88363672370115 4.23585313080164 43.81399822
4.90155648094348 2.64171351855589 36.78000164
4.41644573587624 2.92815788928135 38.33700085
2.72634104139757 3.98650973139302 43.81399822
2.59719235297569 3.7507423857344 43.76399898
20.9137346240977 3.25232503531218 57.09100246
21.6395871467319 3.18608218373197 55.25600338
21.8386058766672 3.42085464300891 55.07500362
21.6944198951222 4.5829855708096 57.04299831
22.3182758368347 4.22468138580736 55.04299831
22.0671188424594 4.74540077261891 56.35400295
22.2457734917697 5.02239372271841 56.28900051
22.5921390401918 4.80780916626974 55.15799618
26.1404116838544 3.20585555056787 44.5009985
26.4849636373099 3.35469469862716 43.84599972
26.779190921292 3.89560198826698 43.84500027
26.9646335974773 4.15852144142562 43.76399898
27.0947771722809 4.46415882859766 43.84599972
2.44668469754712 3.48732548938492 43.74800014
2.24766596761182 3.25255303010798 43.84599972
1.66055864162273 3.24693606741141 45.20699978
-1.57909195572284 4.92835623285 55.20799923
20.5653793029122 3.32716950873401 57.05499935
21.0504900479795 3.04072513800855 55.48100185
21.2980198524215 3.24685316021294 55.16999721
21.0033262154479 4.14556719166416 57.07199764
21.6271821571604 3.78726300666192 55.08799648
21.2975534994301 4.68647448130397 57.1050024
21.8225736971624 4.7488828749548 55.95799923
22.0719170965711 4.59158719265121 55.1050024
21.9313583049593 5.02687071143597 56.0559988
25.7289743480306 3.26762141343052 44.56299877
26.0803143283611 3.40238706454897 43.8910017
26.0649246796444 3.79395776293864 44.46399975
26.5813432555352 4.23386335803829 43.82599926
26.5310185860619 4.6259314996188 44.46399975
-1.72959961115142 4.66493933650052 55.14399624
-1.84517224582328 4.40102499696019 55.0599966
-2.4826042412857 4.78747617584414 57.07800197
-1.98210384750184 4.10946110672901 54.9289999
20.0315813055415 3.13909452899719 57.1279974
20.2102359548518 3.41608747909669 57.07800197
20.7720047683075 3.1145747250487 55.34100246
20.3539555834054 3.69357787238702 57.11199856
21.0127465458745 3.33477624419394 55.07800197
21.156466174428 3.61226663748427 55.07800197
21.3069738298566 3.87568353383375 55.09500027
20.8054785496911 4.48382856143546 57.09599972
21.4574814852852 4.13910043018324 55.09500027
20.9909212258764 4.74674801459411 57.04700374
21.7099857216356 4.69457865995474 55.22699642
25.1748122700348 3.12176692451626 44.7660017
25.5824462381287 3.28368468313473 44.02899837
25.9650940492827 4.14480030007828 44.25900173
26.0321556094478 4.43735907669115 44.45500088
26.1758752380014 4.71484946998148 44.48800182
-2.6534759773393 4.56627977031722 57.1750021
-2.15976361043044 3.90233819814294 55.0599966
-2.76904861201116 4.3023654307769 57.07700252
-2.32384731960903 3.66706829567516 55.10999965
19.7191558914945 3.2833116007416 57.07199764
20.0102223385348 3.11144497830633 56.15399837
20.4585844678787 3.18892175527968 55.17099666
20.644027144064 3.45184120843832 55.08900356
20.3143984863338 4.35105268308038 57.07299709
20.4581181148873 4.62854307637071 57.10600185
21.1586321249882 4.25517050804594 54.97399807
20.6435607910726 4.89146252952935 57.03999996
21.3694133137069 4.82521967794914 55.23799801
24.8060928682244 3.23883188876064 44.79299831
25.2476669706933 3.33038216267485 43.8590002
25.3981746261219 3.59379905902433 43.85800075
25.5836173023072 3.85671851218297 43.76000118
25.7554839247424 4.14778495922332 43.76100063
25.8574805056643 4.43984629264535 43.8590002
25.807155836191 4.83191443422587 44.53100109
26.0012001342179 4.71733668593568 43.90799999
-2.81574609155128 3.96758616334147 56.63400173
-3.0632758959933 3.76145814113708 56.9289999
23.382130644245 7.77362765045761 1.73799991
23.2869220901982 7.46749282009472 1.55799961
19.1067100529719 2.97056492130047 57.13600063
19.2707937621505 3.20583482376825 57.07199764
20.0519453861665 3.09687403817463 55.0539999
20.1675180208384 3.36078837771496 55.08699703
19.6524466869228 3.99708039919837 57.20200252
20.318025676267 3.62420527406444 55.10400295
19.8446773899831 4.24592635541616 57.10400295
20.0233320392934 4.52291930551565 57.0539999
20.173839694722 4.78633620186514 57.07199764
20.941415264988 4.70552241015323 55.08799648
21.0569878996598 4.96943674969355 55.1849966
24.3295837449987 3.14777905803728 44.87399959
24.7711578474677 3.23932933195149 43.92299938
24.9420295835213 3.46052573747841 43.79199886
25.4149115168137 4.27842597721772 43.77500057
25.2675646983269 4.72778299294333 44.72600078
25.5169080977355 4.57048731063974 43.88999843
25.7023507739208 4.83340676379838 43.80800152
-2.56259932441269 3.58660685955677 44.35200023
-2.28791741247064 3.73644089399775 43.92600155
-2.1994968852988 4.05664922130148 44.23800182
-1.94517905398177 4.24870374656502 43.90899944
-1.74616032404647 4.48347620584195 43.77799892
18.7719307855365 3.01726240084059 57.07800197
18.9156504140901 3.29475279413092 57.11199856
19.0943050634004 3.57174574423042 57.09500027
19.7249490319878 3.19936806228733 55.06100368
19.2448127188289 3.8351626405799 57.07800197
19.8618806336663 3.49093195251851 55.12699795
20.0123882890949 3.75434884886799 55.11099911
20.1910429384052 4.03134179896749 55.09400081
20.3483386207088 4.28068519837612 55.01299953
19.8400553136682 4.90290372291868 57.07900142
20.4639112553806 4.54459953791644 55.07800197
20.5523317825525 4.86480786522017 55.34100246
23.8385036816414 3.01500317968219 44.94499874
23.995799363945 3.26434657909082 44.91300106
24.3218008317421 3.09198251346471 43.89599895
24.5072435079273 3.35490196662335 43.79799938
24.6791101303626 3.64596841366369 43.79799938
25.1170570428983 4.46436609659384 43.83100033
25.2326296775702 4.72828043613417 43.88199901
-1.85178409490153 4.91826228143587 44.6789999
-1.59565266861789 4.74689310219143 43.85999965
-1.43156895943931 4.98216300465921 43.81099987
1.66436200935269 3.02325244593029 33.74399853
18.4585104851078 3.09160943107158 57.10800075
18.6856762089248 3.33995794409852 56.89500332
19.2260860553738 3.01079563935967 55.13999843
18.7876727898466 3.63201927752055 57.02600002
19.4115287315591 3.27371509251831 55.04299831
18.9313924184002 3.90950967081088 57.05899715
19.3479803639292 4.70025780305017 57.13999843
19.9718363056416 4.34195361804793 55.14099788
19.5052760462328 4.9496012024588 57.09200191
20.0302962439652 5.01200959610962 55.9289999
20.2660635896238 4.88286090768774 55.15699673
23.496936387331 3.07577415616316 45.02500057
24.0151685581883 3.15225604675484 43.8949995
24.2006112343736 3.41517549991348 43.76200008
24.4948385183558 3.9560827895533 43.77899837
24.6385581469093 4.23357318284363 43.79600048
24.7958538292129 4.48291658225226 43.76299953
24.8910623832598 4.78905141261514 43.96100139
2.18159929382836 3.02986429500854 32.58000088
4.07206996021752 3.28248252875687 28.54600048
5.42938516002413 2.41056824921216 24.10399914
18.1305192445474 3.12423341367084 57.07600307
18.2810268999759 3.38765031002032 57.09200191
18.8010726657999 3.10070849610403 55.45300197
17.8426136344488 4.00887394818121 59.01100063
19.0903255178736 3.29226557817672 54.99400234
18.0416323643841 4.24364640745814 58.83100033
18.7974454758667 3.82755590511997 56.47000027
19.2272571195522 3.58382946840791 55.09200191
18.2959501957012 4.43570093272168 58.45400142
18.7325498662617 4.17790099906877 57.07600307
18.8762694948152 4.4553913923591 57.14099788
19.0267771502438 4.71880828870858 57.14199734
19.1908608594224 4.95407819117636 57.02699947
19.9516484028134 4.8873378964053 55.10999965
23.1475861797639 3.08074858807157 45.01000118
23.7007533713779 3.1567330354724 43.81299877
23.8444729999315 3.43422342876273 43.81399822
24.0299156761168 3.69714288192138 43.76399898
24.1804233315454 3.96055977827086 43.73100185
24.3027839930922 4.21040062087033 43.74800014
24.5552882294427 4.76587885064183 43.91300106
6.32792301367859 2.2020980986509 21.74299907
3.87439847225742 4.12390768606299 30.25200176
6.72098604164078 2.32229280963765 20.97099972
4.07341720219271 4.35868014533993 30.13799953
7.134413150228 2.40026702980185 20.12000179
17.6957331689535 3.01860964281578 57.08699703
18.0684321162906 3.18102484462509 56.48100185
18.4565207123444 2.95186934804473 55.18600368
17.5815077762568 3.83089291985852 58.51399898
18.7321975106682 3.17157342399913 54.84200191
18.1899740692526 3.86415943324596 57.10400295
18.7856830170833 3.4922791944937 55.15399837
18.7285703207349 3.89842083301507 55.87499904
18.9226146187619 3.78384308472489 55.20300197
18.8305669016568 4.1904821664371 56.02300167
18.5997739879066 4.6689810624261 57.18700313
18.7920046909669 4.91782701864388 57.12300014
18.9910234209022 5.15259947792082 56.94100094
19.5663682881079 4.82293972999112 55.08900356
23.2737502090407 3.10690580918991 43.87499904
23.459192885226 3.36982526234855 43.79199886
23.9252867916434 4.20179899902871 43.79299831
24.075794447072 4.4652158953782 43.79400158
23.8867245809535 4.9291438512355 44.8759985
24.2127260487505 4.75677978560938 43.8590002
8.33080547779781 2.00585675986446 16.77500057
8.64902403233819 1.77769614966577 15.6600008
3.35569994840865 5.48704711656235 33.43199825
4.14545319426625 5.00058912951991 30.90700054
17.2900889736229 2.99643196722416 57.08900356
17.4338086021765 3.27392236051449 57.13799953
17.7530220430986 3.11563179182923 56.17099666
18.0576645438889 2.91561817551225 55.12100124
18.2848302677059 3.1639666885392 54.97499752
18.3936148755028 3.44195452502037 55.07299709
18.7196163432998 3.26959045939426 54.03900051
17.9270546160939 4.04960210943124 57.00700283
18.5441225309313 3.70537142136986 55.04099941
18.6946301863599 3.96878831771934 55.05699825
18.8451378417885 4.23220521406882 55.07399654
18.3368545347479 4.85442373861138 57.10600185
18.9471344227103 4.52426654749084 55.20400142
18.5155091840582 5.13141668871087 57.07399654
19.1461531526456 4.75903900676778 55.07399654
22.2450687805827 3.00973857257913 45.25200176
19.2695087005742 5.07874989088067 55.20500088
22.8535350735785 3.04300508596657 43.84300136
23.0321897228888 3.31999803606606 43.81099987
23.4034274308528 4.85216451745298 44.99199962
23.7779399731566 4.65115601475432 43.81099987
23.9284476285852 4.9145729111038 43.81199932
3.80406207775258 5.5645238935357 32.54799938
3.99629278081287 5.81336984975349 32.4649992
16.9000106048058 3.08584738077768 57.07800197
7.78495484644902 3.42529017812723 20.11899853
17.0223712663526 3.33568822337715 57.12699795
17.5074820114199 3.04924385265169 55.56999874
17.8520339648754 3.19808300071099 54.94699764
17.9404544920472 3.51829132801472 55.19299984
18.6263975620163 3.10319571205823 52.94699764
18.9156504140901 3.29475279413092 52.52100277
17.3682704617833 4.5607249880195 58.01299953
17.6176138611919 4.40342930571592 57.14399624
18.7683035956033 3.74410980985653 53.48799801
18.4337005059646 4.29397107693147 55.02899837
18.9605342986636 3.99295576607432 53.37300014
17.9535641928058 4.92976565522405 57.09599972
18.7093773042884 4.51367515288587 54.71800136
18.6862047423151 4.84944930670298 55.22699642
21.8336314447588 3.07150443544179 45.30699825
18.8920114991254 5.07014826903906 55.04700374
22.4343148244979 3.04897440425665 43.79999828
22.8790497639087 3.85329859024595 43.81700039
23.1878479880225 4.43592892751748 43.88199901
22.9570550742723 4.91442782350648 45.11199856
23.3519316972011 4.67119882998526 43.79899883
23.5373743733864 4.9341182831439 43.7509985
16.5001595499686 2.97972616673178 56.78700161
16.5817920502654 3.31400799097636 57.06600094
17.1639249443461 2.97027474610581 55.19799709
17.4396017426698 3.18997882206022 54.86900234
17.6404340675717 3.06132757682918 54.1809988
4.73572135719715 5.71898000429157 30.59699917
16.9177423818793 3.84034434048448 57.01799679
17.506663302835 3.48253759867308 55.09899807
17.0197389628011 4.13240567390651 57.14900112
18.8010726657999 3.10070849610403 51.47599697
17.8144666405671 3.99529789443119 55.06700039
18.8128351245833 3.43598520673029 51.93600368
7.92188644812759 3.71685406835842 20.24999904
17.1887971038881 4.71702578394141 57.54299831
17.9581862691207 4.27278828772153 55.13200283
18.9701308068869 3.68532860613892 51.8530035
17.4916260097119 4.8804358721324 57.05100155
18.4310682024131 5.09068852746084 55.11700344
21.9733715277857 3.06951466267843 43.85299969
22.152026177096 3.34650761277792 43.83700085
22.3025338325245 3.6099245091274 43.83600139
22.4598295148281 3.85926790853603 43.75500011
22.6103371702567 4.12268480488551 43.78800106
22.7191217780535 4.40067264136669 43.85299969
22.4747528105533 4.90731853123738 45.14900112
23.0900071304241 4.92651154768397 43.73900127
16.0907119869081 3.18123211262128 56.98999691
16.8301405632923 3.08684226715936 55.1050024
16.9738601918459 3.36433266044969 55.1050024
17.1040037666495 3.66997004762173 55.25199795
18.0189261554022 3.13979924018422 52.36700344
18.413802778331 2.896570246663 51.03800106
16.6306554803656 4.29169112897345 57.23599911
16.9838090556627 4.06303307558393 56.03999996
16.8432502640509 4.49831659436868 57.02300167
18.9573734617218 3.28018185399923 50.25200176
16.9520348718478 4.77630443084986 57.12200069
17.1093305541514 5.02564783025849 57.08900356
17.6982514751071 4.66784108844709 55.18700313
18.8906642571502 3.993950652456 51.40000057
17.8487591305357 4.93125798479657 55.17099666
18.8852234722504 5.08422176597991 52.94100094
22.2134707745645 4.22617371537988 43.77699947
22.0846744417362 4.9967339447909 45.15399837
22.5076980585467 4.7670810050197 43.82599926
22.6717817677253 5.00235090748747 43.72799969
26.5228833172117 3.56380737997659 32.54699993
26.6947499396469 3.85487382701694 32.54699993
26.8588336488255 4.09014372948472 32.4649992
15.6579156840775 3.21534842479306 57.0500021
15.8152113663811 3.46469182420169 57.01799679
16.4254912543435 3.13453463308116 55.13200283
15.923995974178 3.74267966068287 57.11599636
16.8321303360557 3.2265823501862 54.26299953
16.0812916564815 3.9920230600915 57.08299923
16.8438927948391 3.56185906081247 54.69000149
16.2385873387851 4.24136645950012 57.08399868
16.9041663281293 3.86849133436619 55.00199795
17.0129509359261 4.14647917084736 55.08399868
16.567749643524 4.7817763059491 57.05100155
17.1848175583614 4.43754561788771 55.09999752
16.7599803465843 5.03062226216689 56.92099666
17.4441098215868 4.97895035071837 55.19899654
17.8856839240557 5.07050062463257 54.29800319
18.9393515094537 4.46847000291828 50.92000103
18.4378562292881 5.07661503051999 52.93700313
21.3427275591983 3.44189234462152 43.80300045
18.9696644538955 5.12494992722995 51.77200222
12.8466673080434 0.627731853241043 4.24899959
21.9379701540376 4.5096334269603 43.78800106
21.6518781389056 5.03085025696269 45.23100185
22.0749017557161 4.80119731719148 43.88700008
22.2739204856514 5.03596977646842 43.75500011
25.8629212905641 3.34957517912143 32.83600139
26.1172391218811 3.54162970438497 32.49199962
26.2677467773097 3.80504660073445 32.45999813
26.4114664058633 4.08253699402479 32.50900173
26.5551860344168 4.36002738731512 32.52600002
15.2542612615104 3.33291083222829 57.07199764
15.5870507561824 3.14647326966132 56.0539999
15.3979808900639 3.61040122551862 57.13700008
16.0354128855263 3.22395004663468 55.07199764
16.8864345510558 3.11399437465938 52.90799618
17.1978650787211 2.89990726140155 51.85800075
17.7995433448419 2.94724727172984 50.51299953
16.979829510136 3.78355290953023 53.61199856
18.386650670831 2.95286423442641 49.10399914
16.0145824519099 4.70579185854826 57.18700313
16.7422485695108 4.27612530246008 54.85800075
19.0436280383335 2.9574863107413 47.56199932
16.2203892087202 4.92649082088435 56.98999691
16.9276912456961 4.53904475561872 54.77699947
16.4679190131622 5.13261884308874 56.64600277
16.9462417313545 4.86024796930413 55.13799953
17.1035374136581 5.10959136871276 55.13799953
19.0703137928421 4.34081364406892 49.36600017
18.5067313844199 5.00575010262488 51.62899685
18.8744558998486 4.81881509686707 50.53100109
5.41985083219969 5.66730809284305 28.94000149
18.9832405076455 5.09680293334825 50.61199856
13.6899060603162 0.461979636693179 2.05200004
5.61208153525998 5.91615404906084 28.8419981
21.4478849770619 4.44672759011864 43.80900097
21.1064938605482 5.01066235413443 45.43199825
21.5848165787405 4.73829148034982 43.90700054
21.742112261044 4.98763487975845 43.8590002
25.3796241404635 3.27259584533892 32.82400036
25.6135778911555 3.50687086142502 32.59500027
25.764085546584 3.7702877577745 32.58000088
25.991251270401 4.01863627080145 32.36500072
26.1078187914546 4.35242065185519 32.56199932
12.8498281449852 1.34050576531613 5.28099918
14.7777521382847 3.24185800150492 57.08199978
15.1726287612135 2.9986290079837 55.802001
14.9001127998316 3.49169884410439 57.08100033
15.517180714669 3.147468156043 55.1789999
15.6744763969726 3.39681155545163 55.16300106
15.8317720792762 3.64615495486026 55.08100033
16.9271627123058 3.02955339301427 51.68700313
15.379782759999 4.29552558690285 57.08100033
16.9185610904642 3.40705059446309 52.21199703
17.5559930859266 3.02059941557914 50.14599895
16.4452128041804 4.02877167581481 54.16300106
18.2682695548109 2.98250355788063 48.39200115
18.5661240287262 2.79656343850451 47.40799999
15.6740100439812 4.83643287654266 57.09899807
16.8732108528993 4.14846894361072 53.29399776
16.0602850450684 4.97070108447027 56.36099911
16.4833086618789 4.74104814469906 55.09699917
16.6338163173074 5.00446504104854 55.08199978
20.182907669555 2.96921767932528 43.81700039
17.2412877239215 4.96786151292255 53.57299709
19.0924914684338 3.93516944873839 47.73699856
20.2984803042269 3.2331320188656 43.88299846
17.7663079216539 5.03026990657338 52.39299679
20.4557759865304 3.48247541827423 43.86699962
18.3883502683997 5.03538942607911 50.91799831
19.0189942369871 4.66301174413601 48.88400173
20.606283641959 3.74589231462371 43.83399868
18.9618815406388 5.06915338265738 49.62100124
20.7849382912693 4.0228852647232 43.78499889
20.9286579198229 4.30037565801354 43.83499813
6.37187419226928 5.77954371277636 26.8910017
20.7241984049878 5.15587431226052 45.49000072
21.1607980755483 4.8980743786076 44.09699917
7.80584746046431 4.89256104990913 22.2509985
21.3947518262403 5.1323493946937 43.86699962
24.8332449757244 3.18253790099723 32.98100185
25.0875628070414 3.37459242626077 32.62100124
25.2797935101017 3.62343838247856 32.53800106
25.4235131386553 3.90092877576889 32.52300167
25.6021677879656 4.17792172586839 32.52300167
25.6838002882624 4.51220355011297 32.75200176
14.3517438623292 3.26190081673586 57.0579977
14.8650016012781 2.98903249976041 55.46700191
15.0911724387134 3.16751097127394 55.15599727
14.6527591731863 3.78873460943482 57.09000301
17.2066428783595 3.02557384748754 49.94200039
12.9935477735388 1.61799615860647 5.34699917
17.7801741505986 3.05933780406582 48.64599895
15.2761487619073 4.87005174552361 57.09200191
15.7245108912512 4.94752852249696 56.13999843
19.0310468709652 3.05550334613643 45.63000011
16.8987255432294 4.9587624478901 53.33599758
19.2001050120522 3.64012345617132 46.03999996
17.4790448423435 4.97845290752753 52.00800228
18.0525761145826 5.0122168641058 50.67999935
19.0645206523488 4.4247571825232 47.43400097
18.6328954136967 5.03190732374323 49.27099895
18.9988063341589 5.20839602249339 48.67999935
20.544372691499 4.30584753311278 43.7130003
20.2564670814005 5.19048806762314 45.61400127
20.9755315771597 5.13831871298378 43.84500027
24.4072366997689 3.20258071622817 33.00599956
24.7100656055926 3.36599080441916 32.51499843
24.8673612878962 3.61533420382779 32.43300152
6.83381237536322 5.82887349586801 25.84099865
25.182947538885 4.18389104415847 32.49800014
25.2364330453002 4.50459681465304 32.76100063
8.06695331865635 5.07054207823181 21.87399959
13.9470945533803 3.30959318265766 57.07199764
14.522439420586 2.97993343472796 55.30100155
14.7214581505213 3.2147058940049 55.13799953
14.8719658059499 3.47812279035438 55.12100124
14.4199764866727 4.12749342239696 57.12200069
15.0506204552602 3.75511574045387 55.08799648
15.2011281106887 4.01853263680335 55.09000301
16.8165645095423 3.11498926104106 50.00599956
15.379782759999 4.29552558690285 55.08900356
7.28217450470714 5.90635027284136 24.95600033
14.8996464468402 4.93132016519542 57.09000301
18.5593360018512 2.81063693544536 45.43199825
15.4100957044408 4.95200551121452 55.86099911
16.8033408113858 4.14946382999241 51.4329977
19.201742429222 2.77353596412853 43.82499981
15.796370705528 5.08627371914213 55.13799953
16.856826317801 4.47016960048698 51.77799892
16.8482246959593 4.8476668019358 52.35099697
19.1981152392888 3.50038337314448 44.87499904
17.1792005956648 5.02465294387681 51.79299831
19.0992794953088 3.92109595179754 45.6789999
17.7459438410289 5.07249039739593 50.4820013
19.1391889479739 4.26994871617382 46.0559988
18.3679861877747 5.07760991690166 49.00699901
18.9850541026121 4.73337922884028 47.0559988
18.9415174600138 5.11137387347994 47.6789999
20.3329489719922 4.67225589676579 43.77699947
19.9081117602151 5.26533254104497 45.59699917
20.4000105321573 4.96481467337866 43.97299862
20.5990292620926 5.1995871326556 43.84300136
24.1694795813469 3.1919893216232 32.59599972
24.4986418860857 3.73239916807217 32.49800014
13.0366180631457 2.67962283505783 6.82300091
24.9094366911214 4.60709083876573 32.69399929
13.222060739331 2.94254228821648 6.75699901
13.4637974032797 3.23261384887514 57.11599636
13.6143050587083 3.49603074522462 57.09899807
14.2313729735457 3.15180005716323 55.16499996
14.423603676606 3.40064601338102 55.04900265
16.7806346024039 3.04561666271848 48.95099926
14.3736313627261 4.79904173003118 57.11599636
15.0042753313136 4.42666404808808 55.11599636
15.1461813649005 5.06757814588639 55.65799618
19.0901493400769 2.78910179064191 43.09799862
16.7384452017808 4.4998089239412 51.06700039
19.2338689686305 3.06659218393224 43.16400051
19.1835442991571 3.45866032551276 43.8039999
16.9356503367495 5.09800508772611 51.42800045
19.0497735344204 3.87987034735666 44.70600033
17.5023935821136 5.14584254124524 50.15000057
19.1799171092239 4.1855077345287 44.83700085
18.0895009081027 5.15145950394181 48.75599956
19.0529343713622 4.59264425943175 45.70600033
18.6484612402101 5.14350041288837 47.3949995
19.161718979159 4.87063209591292 45.8039999
19.3054386077126 5.14812248920326 45.85399914
20.0865902317286 5.03916170360964 43.82099819
23.4280612321992 3.14663908405827 33.24600124
23.8424832271681 3.29448334573589 32.50799846
23.9862028557217 3.57197373902622 32.53999996
24.1299224842753 3.84946413231655 32.52500057
24.2804301397038 4.11288102866604 32.52500057
24.4445138488824 4.34815093113381 32.44299984
24.5397224029293 4.65428576149669 32.65700054
13.3571787460429 3.59752988295563 7.38000011
13.7017306994984 3.74636903101493 6.78999996
14.3454843688444 4.78546567628116 6.77399921
13.7896848736788 5.5061986794097 9.15100002
14.5309270450297 5.04838512943981 6.72399998
13.8295943263439 5.85505144378597 9.54399967
13.8559277252591 6.23205120204396 10.03600025
13.0581532079492 3.21043617328352 57.1050024
13.7975817843334 3.1160463278216 55.21800136
13.9966005142687 3.35081878709853 55.08799648
14.1471081696973 3.61423568344802 55.07099819
13.6601838296634 4.26410375868144 57.15399837
14.0029221881523 4.77636661124871 57.0559988
15.0455320259539 5.85171442904742 6.67500019
14.1670058973309 5.01163651371649 56.98999691
14.7491387914116 4.66790326884594 55.10400295
17.9722286758621 2.80501997274879 44.8910017
14.8162003515767 4.96046204545881 55.33599758
18.4623138528378 2.86792580959045 43.80800152
16.7965527845108 4.16353732693326 49.56299877
19.1600193815903 2.78810690426022 41.98900127
16.8151032701692 4.48474054061867 49.92399883
18.7283941429382 3.39525704548025 43.85800075
16.8132896752026 4.84816424512664 50.43199825
19.0108589681369 3.6008876244938 43.51399898
17.1025425272764 5.03972132719934 50.00599956
19.0643444745521 3.92159339498838 43.79299831
17.6760737995155 5.07348528377761 48.67800045
19.2080641031056 4.19908378827871 43.84300136
18.3116922000113 5.05045780940164 47.13700008
19.206250508139 4.56250749278668 44.35100078
18.4486238016898 5.34202169963283 47.22000027
18.8784354453754 5.09829526292077 45.8910017
19.1695018924157 4.92642864048549 44.92399883
19.049307181429 5.31949166844769 45.74500179
22.8894649807169 3.11237768428915 33.56199932
19.7887357578132 5.22510182298577 43.85800075
23.4144851784492 3.17478607793997 32.41499996
23.9893636926635 4.28474765110131 32.54600048
23.9322509963152 4.69088928962268 33.23499965
14.004621785721 6.85889180290141 10.57700062
14.5014949895717 6.90772414280222 9.49599933
15.3846431945095 7.09082469063063 7.67699909
15.8262172969784 7.18237496454484 6.77500057
16.6269142930345 7.46448743415006 5.31499958
22.9609206224011 7.63985688572084 2.5909996
22.4359004246687 7.57744849207002 3.72199917
12.6738679796253 3.21590804838276 57.13400173
13.4618076305163 3.09287376584829 55.13300228
13.5841682920632 3.34271460844776 55.15000057
13.8919716297953 3.85547490420587 55.15000057
13.5904899659468 4.76826243259794 57.11800289
13.7759326421321 5.03118188575658 57.06799984
14.3648535630878 4.67337514394518 55.13400173
17.5462203999066 2.82506278797972 45.03499889
14.5085731916413 4.95086553723552 55.20000362
18.2353243068175 3.12274108409832 43.77300167
18.8659682754049 2.75036340215523 41.78800106
16.659797360629 4.37513722423689 49.26499843
18.3994080159961 3.3580109865661 43.73900127
19.2454552496171 2.89870510702369 41.09899807
18.5499156714247 3.62142788291558 43.75599956
16.815279447966 4.98790432815349 49.78999996
17.056021225533 5.20810584729873 49.47899914
18.8373549285318 4.17640866949625 43.80499935
19.3641887212308 3.8753933586391 42.13299846
18.0457880877076 5.02629036104666 46.90399837
19.0713086792238 4.41068368558234 43.59300136
18.4873621901765 5.11784063496086 45.97000027
19.1597292063957 4.73089201288608 43.8059988
18.7766150422503 5.30939771703356 45.52699947
19.2481497335675 5.05110034018981 44.08499813
19.4607445172528 5.25772580558504 43.80699825
22.711981395585 3.4084185632379 33.55900097
22.8760651047636 3.64368846570568 33.45999813
23.78373311365 4.56721247630005 32.56000042
23.9555997360852 4.85827892334039 32.54299831
22.1049245249633 7.40046235012901 4.27900028
21.5731163003559 7.35212745341905 5.46000004
20.9995850281168 7.31836349684077 6.75500011
20.8073543250565 7.06951754062298 6.85299969
20.2338230528175 7.0357535840447 8.16499996
19.8261890847236 6.87383582542623 8.90199947
20.0043152006436 5.64133741292127 6.75500011
17.8027663621826 6.60913386750042 13.29699993
12.2798100652814 3.02584329588258 56.93199825
12.3953826999533 3.2897576354229 57.01299953
13.1561702433443 3.22301734065185 55.12899685
12.6760339301854 3.85881191894442 57.14500332
12.8614766063707 4.12173137210307 57.09599972
13.4503975273264 3.76392463029167 55.19399929
13.0187722886743 4.37107477151169 57.06200313
13.6426282303867 4.01277058650945 55.11199856
13.1760679709779 4.62041817092032 56.99800014
13.7931358858153 4.27618748285894 55.11199856
13.3197875995315 4.89790856421066 57.06400204
13.9504315681189 4.52553088226756 55.06300258
14.1680007837126 5.08150655522991 55.32600307
18.0420987173755 2.80402508636711 42.91400051
16.6887630630957 3.95541953196551 47.7509985
17.9432629733955 3.22473766502017 43.78299999
16.7907596440175 4.24748086538753 47.9309988
19.2095253424787 2.8293325087011 40.19299984
16.8238810698076 4.61040712670466 48.35800075
19.1941356937621 3.22090320709078 40.74999904
16.7803444272093 4.98840177134433 48.98100185
17.2219185296782 5.07995204525854 48.03000164
19.1352094024472 3.99046855012012 41.97999859
17.7673028080356 5.1001399480868 46.7680006
18.71037219067 4.5835451943993 43.81700039
19.250782037119 4.25438288966044 42.04699993
18.2573879850112 5.16304578492846 45.67000103
19.0617121710005 4.71831084551774 43.17800045
18.9347294331388 5.12544737042079 44.01399898
22.5740549075248 3.04698463149329 32.50500011
19.1686831838308 5.35972238650689 43.80100155
22.7295369948618 3.65975173540989 32.94700146
22.8528925427903 3.97946261952278 33.12800121
22.8995900223304 4.31424188695821 33.45600033
23.1421453948641 4.17101970159548 32.70199871
23.3411641247993 4.40579216087242 32.48800182
23.2006053331876 4.84107567965717 33.47299862
23.4984598071029 4.65513556028104 32.47299862
17.5620245846155 6.38893234835517 13.57499981
16.2626407897422 6.42141124335711 16.67400074
16.0839861404319 6.14441829325762 16.72300052
15.5521779158246 6.09608339654765 17.95399952
15.3599472127643 5.84723744032986 18.0180006
15.2298036379607 5.54160005315782 17.88700008
15.1849197533872 4.84339708121442 16.98499965
17.349657795726 1.29040909063861 6.80300045
14.7047212598295 2.53007897581151 14.77200031
11.9907333910045 3.3374500013447 57.10099697
12.1761760671897 3.60036945450334 57.05100155
12.7650969881454 3.24256271269194 55.11700344
12.3266837226183 3.86378635085283 57.03500271
12.9573276912057 3.49140866890973 55.03400326
13.1010473197593 3.76889906220007 55.08399868
13.3807036636098 4.26808330420816 55.09999752
12.9073553773259 4.88980438555989 57.10099697
13.3974405543016 4.95271022240155 56.01899624
16.6341064925021 3.06167993242269 45.73900127
17.0774941899376 2.78980650182893 44.24700069
13.6449703587436 5.15883824460594 55.70799923
16.6322928975355 3.42510363693066 46.2149992
17.5540033131632 2.8808593325523 43.26399898
18.3147908565542 2.81411903778124 41.37800121
19.1929646295837 2.64786937804254 39.01700115
16.6957272677674 4.44450982255947 47.47799969
17.8532050290538 3.77111682975923 43.78800106
19.3298962312622 2.93943326827372 39.16499996
17.9969246576074 4.04860722304956 43.8380003
19.3416586900456 3.27470997889999 39.57499981
16.7609752329659 5.10049230368031 48.2149992
17.1957613085599 5.20611607453537 47.37900066
21.3958607100199 2.75627054004645 33.95199871
17.8381677359307 5.16901510321854 45.77300167
18.4552356507681 4.82478441515715 43.80499935
18.4116990081698 5.20277905979682 44.42800045
19.3266213969225 4.6726082523593 41.52600002
22.1684107121943 3.02480695590167 32.47600078
18.784397955507 5.36519426160613 43.77300167
22.4839969631831 3.59336379623235 32.54199886
22.6694396393684 3.85628324939099 32.45999813
22.7850122740402 4.12019758893131 32.50900173
22.8317097535804 4.45497685636674 32.90299892
22.7532380902253 4.83346894419724 33.5919981
23.222959186576 4.93859527186146 32.60800075
17.0069194372372 0.778146238071336 6.86799907
14.6997468279211 2.18072876824439 14.32800007
9.07445195790442 5.64322355168654 32.49500179
15.2904813438434 1.45949832192502 11.90100002
8.87543322796912 5.4084510924096 32.6090002
-4.93320630396069 3.96978320410101 43.85800075
-3.16427759053347 3.53926684922848 44.38400173
11.5200174082721 3.16245363216706 56.94799709
11.6433729562007 3.48216451627995 57.12699795
12.2322938771564 3.12435777446855 55.20899868
11.9394138351494 3.6596481014118 56.66899776
12.4662476278484 3.35863279055465 55.01299953
11.9443882670578 4.00899830897892 57.1279974
12.4026992602186 4.78517550108651 57.14500332
12.6366530109106 5.0194505171726 56.91599941
12.9879929912411 5.15421616829105 56.26000118
13.3275705127881 4.95370510878323 55.14500332
17.2783265148395 2.66115525659789 42.60200023
16.5905698499038 3.43967457706236 45.32400036
17.8935808347103 2.68034827304448 41.17600155
16.5819682280622 3.81717177851118 45.86600017
17.2194002235246 3.43072059962723 43.81500149
18.0925995646456 2.91512073232141 40.97899914
18.4806881606994 2.68596523574105 39.7660017
16.7324758834907 4.08058867486066 45.86500072
19.1027305074452 2.69108475524678 38.29099941
16.6589786520441 4.80843097025828 47.04500103
19.2650006216572 3.28977836222252 38.74999904
16.7473991792159 5.12863929756202 47.29099941
19.4572313247175 3.53862431844031 38.63600063
17.2442723830666 5.17747163746283 46.1449995
18.0000854945492 4.76138113512465 43.79999828
19.1507752289605 4.10206163926526 40.14400005
17.8110156284307 5.22530909098195 44.88299846
18.322459772413 5.31586447851448 43.80100155
19.0415242681723 5.26369512387512 41.98100185
22.4631665295667 5.07520560814594 33.58600139
22.7959560242387 4.88876804557897 32.52099895
-4.7409756009004 4.2186291603188 43.79299831
-2.82651366395301 3.70217949422863 43.84300136
-2.66242995477442 3.93744939669641 43.81000042
-2.38458720589057 4.80005734321247 44.46599865
-2.0332472255601 4.93482299433092 43.87499904
1.24713153303551 3.16896184724722 33.61199856
1.74400473688616 3.21779418714803 32.56199932
11.0940091323166 3.182496447398 56.86399746
11.1960057132385 3.47455778082002 57.04399776
11.7713505804441 3.14489803289033 55.20799923
11.339725341792 3.75204817411036 57.07700252
11.9286462627477 3.39424143229896 55.1750021
11.8715335663994 3.80038307082032 55.86399746
11.9531660666962 4.13466489506491 56.15900326
11.8679063764662 4.52723047983627 56.91400051
11.963114930513 4.83336531019915 57.11099911
12.1757097141983 5.03999077559438 56.91499996
12.9015622368326 4.97374792401416 55.07800197
16.4496587026985 2.86863052077747 43.71599865
16.586590304377 3.16019441100866 43.81500149
16.5779886825354 3.53769161245749 44.33899975
18.1371310936256 2.60699612919517 39.33899975
16.6111101083255 3.90061787377462 44.78200054
18.5098300409628 2.76941133100448 38.68300152
18.6970863121147 2.66890707965515 38.12499904
16.7131066892474 4.19267920719664 44.92999935
19.3259166857355 2.65995310222003 36.60000133
16.6142709452673 4.61339178584971 45.74899959
19.3173150638939 3.03745030366885 37.14200115
19.2737784212956 3.41544494830852 37.76499843
20.3895331349502 2.75662289563997 34.17399883
16.8318401608611 5.16936745881206 46.01200008
19.2438178324473 3.76529259906648 38.3380003
17.0793699653031 5.37549548101645 45.7169981
17.5644807103703 5.08905111029099 44.15899944
19.4292605086325 4.02821205222512 38.25699901
17.8469455355691 5.29468168930454 43.7509985
19.3353991965609 4.7982748384453 39.552001
18.7931757551453 5.49086084769213 41.7660017
19.2365634525808 5.21898741709836 40.33899975
22.1196094624929 4.99623650160006 33.14200115
22.265142686013 4.91030319038243 32.68400097
22.4923084098301 5.15865170340937 32.51900005
1.93623543994645 3.46664014336582 32.44700146
2.08674309537503 3.7300570397153 32.49600124
3.9495331208739 2.52947789862258 26.41400051
2.24403877767861 3.97940043912392 32.49700069
3.99623060041402 2.864257166058 26.79099941
4.49491739923127 2.54966580145084 25.16799831
2.39454643310719 4.24281733547341 32.52899837
10.5622009077092 3.13416155068803 57.00700283
10.7127085631378 3.39757844703751 57.02300167
11.2948414572185 3.05384520216696 55.18700313
11.4521371395221 3.30318860157559 55.12100124
10.9652127994882 3.95305667680902 57.20300197
11.7531524503792 3.83002239427455 55.16999721
11.9172361595578 4.06529229674233 55.12300014
12.0677438149864 4.32870919309181 55.13799953
11.5943955287026 4.95043027444353 57.09000301
12.3687591258435 4.85554298579077 55.13899898
12.5124787543971 5.13303337908111 55.20400142
16.046999166513 3.05606296972612 43.92399883
16.5321099115802 2.76961859900067 42.36600017
16.3847630930935 3.21897561472627 43.31700039
17.2094513597078 2.732020184493 40.677001
16.4799716471403 3.52511044508915 43.51499843
16.5402451804304 3.83174271864287 43.81000042
18.4253890593177 2.72868316975444 37.80900097
16.690752835859 4.09515961499235 43.84300136
16.598705118754 4.50179869670457 44.64599895
