ply
format ascii 1.0
comment File exported by Rhinoceros Version 7.0
element vertex 1052
property float x
property float y
property float z
end_header
-2.47766845322776 4.00671760784372 18.99399948
-2.70537663718462 3.81368830674134 19.25600052
1.34520163512474 3.45835335838932 4.36000061
1.90317144072621 1.96285302119877 8.77099991
1.59953698575397 3.54851139090202 4.39300061
2.2448043457508 1.90829204970166 9.21300125
1.88509039386115 3.63725684162838 4.42500019
3.78155207110227 1.99516582956113 10.52400017
4.94474254305803 2.12240413396506 11.32800103
4.9789976513766 2.87944202780548 9.39299965
5.17492274514097 2.37006503565386 10.88500023
4.62352144484595 4.70206099216606 4.35800076
5.26490420493037 2.97599199290133 9.4260006
5.32861164349398 3.69259473310796 7.63899994
5.28425657540313 5.47767433649675 2.99800015
5.6186146842281 4.57100871693903 5.67100048
5.51373048659289 5.70972620944657 2.60400009
5.81969570151258 4.8669092866311 5.07999993
5.9916775339986 5.21104952432643 4.35800076
6.16507194827096 5.58640781949972 3.53800011
6.16987472634449 6.38388086697391 1.52100087
-3.10647923541382 3.24530071046568 20.30500031
6.37130888907555 6.68758595103547 0.931000709999999
6.53884108893462 6.24205765562609 2.24300003
6.71400123043989 6.65643852264683 1.32400036
-3.27542401705922 3.65961094839709 19.09200096
-3.42148497376604 3.19699041337309 20.11000061
-3.70633209098005 3.12385399138571 20.01200104
1.76226640753951 2.30551004801845 8.80599976
1.90423087706596 1.98626656430724 9.74100113
1.45827880712069 3.88336390335221 4.44400025
1.93389509457895 2.6418457713443 8.10099984
1.71437988498283 4.01254450771235 4.36200047
1.99852071130367 4.07007190096075 4.47800064
3.09263593390776 1.97941554264352 10.93700028
3.3487370117699 2.10859614700366 10.87100029
3.94823672188955 2.22223835171413 11.16699982
4.26112358756227 2.22372156258978 11.44600106
4.59922503812103 2.09111544739779 12.13400078
5.02518907578969 2.51760920323633 11.4449997
4.38719651199247 5.00993319249729 4.4260006
5.08713078712038 3.19518937159552 9.75600052
5.12067960454579 3.93661823669696 7.87000084
5.47636769834439 6.26667189325294 2.2130003
5.70266330051491 6.42848313687737 2.01600075
5.98129505786906 5.6729284539126 4.24600029
6.01484387529446 6.41435731901404 2.34400082
6.15327689035508 6.01706869160793 3.50800038
6.3532984712998 6.28955571819154 3
-3.99117920819406 3.05071756939833 19.89700127
-4.33139953143232 3.13649659837339 19.32299996
14.0729873045193 2.67910261595883 19.55900002
14.3276758005952 2.77706516284101 19.54199982
14.5813048603312 2.85161416661472 19.59200096
14.8356402109604 2.94177219912741 19.60900116
11.3383702243576 3.77258217675906 19.27200127
1.61698237081518 3.24272274870562 7.43200112
2.06420576436815 2.06505331343995 10.90699959
1.89971061534969 3.26903208447607 7.64400101
1.65321509363461 4.73479757506432 3.64400006
2.689626350267 2.06021522082176 11.53000069
1.99555428955237 4.69584563230619 4.0710001
2.30844115522509 4.69732884318184 4.38300038
2.56207021496115 4.77187784695555 4.4630003
3.90819002824701 2.02853807426325 12.84200096
4.16429110610915 2.15771867862338 12.72800064
4.75990621631638 2.18551122526948 13.23600006
4.81866961862783 2.79285076430327 11.74399948
4.1547561790514 5.40365505089291 4.38100052
5.13777184416041 3.62302508013107 9.90699959
4.5278190288219 6.04369585828031 3.08500004
5.17061437069265 4.34884491649353 8.08600045
4.78427325213062 6.18068097700993 2.97100067
5.23665256920371 5.80828910358794 4.36400032
5.48653828720599 5.10877860299593 6.41399956
5.49063477438635 5.89064262173115 4.39700032
5.62977408034013 5.50896302306402 5.52800083
5.80140276737957 5.84529874638986 4.82299996
-4.61589350319975 3.0711646907555 19.20800019
-4.8414828144771 2.92496247587005 19.32299996
12.7309639784138 2.74764814714063 19.35000038
13.0136922229484 2.77395748291107 19.54599953
13.297126758376 2.8158758474205 19.710001
13.5489900908792 2.85140227934677 19.87400055
13.7759919839429 3.02882255171017 19.61199951
14.088525704169 3.02250124821633 19.90699959
14.2878409942206 3.27937924606096 19.43099976
11.7182840957918 3.8726989108654 19.96100045
14.886634413447 3.37741242203245 19.710001
15.1427354913092 3.50659302639259 19.61100006
2.13087962468306 2.15588232230115 11.99699974
1.82724516971082 3.7415406920044 7.62000084
2.75841908326141 2.19787131589989 12.48900032
3.07236538527388 2.22276806988401 12.73500061
3.38383966916027 2.1930332232817 13.11300087
3.66727420458795 2.23495158779113 13.27700043
3.94858986733613 2.23004286608362 13.58800125
3.03055296439843 5.4467034808314 4.40500069
3.31610637250561 5.53544893155776 4.45499993
4.57295101689523 2.20179123035697 14.26000023
3.57185430492117 5.65682502154841 4.40500069
4.7722663069468 2.45866922820159 13.8010006
3.82830852822989 5.79381014027803 4.30700016
4.83456116372407 3.14405391093027 12.09600067
4.9467201575589 2.85744106648334 12.94799996
4.39800276265791 5.9400829842528 4.47000027
4.53890779584461 5.59742595743311 5.48700047
5.15331024381007 3.96642371238858 10.29100037
4.84932264339125 5.54427756772234 5.93000031
4.98987453113137 5.19381602653317 6.96300125
5.15599414920411 4.71706967364584 8.3730011
5.21652327874847 5.36343178452708 6.75
3.08133527961709 1.72967108281988 4.38500023
10.8171275452008 2.62309374813073 19.15999985
11.0718160412766 2.72105629501291 19.14400101
11.3257982464593 2.80340981315611 19.16100121
11.6099390727801 2.86093720640452 19.29199982
11.8649807143025 2.96670426765619 19.25900078
12.2357128041256 2.86390362815582 19.86499977
12.4904013002014 2.961866175038 19.86499977
12.6911291720393 3.24996223036058 19.29100037
12.8579550810052 2.78882490621223 20.63500023
13.1701356557847 2.7746990883489 20.94700051
13.4230584246276 2.83363906338364 21.04500008
13.7057866691621 2.85994839915409 21.24300003
13.7694941077257 3.57655113936072 19.42300034
13.9895743500364 2.909671278033 21.375
14.3031675066023 2.92676351764763 21.60400009
14.5869551874765 2.97648639652654 21.75200081
14.5931705473364 3.80517750147869 19.60300064
14.9074699947955 3.8378787698323 19.80000115
1.26411944058924 4.43176346735127 20.42300034
1.71755819400207 4.08278513703775 7.85700035
1.96779705745093 3.39107915081522 9.8900013
2.41678617823682 2.252432287397 13.25099945
1.71953580850294 4.81782206955603 5.97100067
1.85867511445672 4.4361424708889 7.11899948
3.01098870665772 2.24900677656514 13.82500077
1.724903619291 6.31911399207055 2.13300038
2.03673104862397 6.29718365983773 2.49400044
2.3797765354349 6.27384074581858 2.8720007
2.54448357172131 5.7658763354533 4.36300087
2.69054452842812 6.2284968704773 3.31400013
2.83074327072165 5.87023081491864 4.36300087
2.94431484634281 5.61483602794966 5.11800003
4.20151263617902 2.28898284111836 14.90600014
3.14433642728754 5.88732305453327 4.61000061
4.62853611018743 2.73889014006536 14.18499947
4.73963566768251 2.42886375250997 15.10300064
4.88499033349615 2.87587525879499 14.0529995
4.27044662735206 5.19508735014087 7.51099968
4.91465455100914 3.53145446583205 12.41399956
4.52725399610737 5.33987698323998 7.38000107
4.9471439320948 4.24946978782502 10.59300042
5.20253871906377 4.36304136344618 10.52700043
5.20486947901122 5.10588281033395 8.6590004
0.978212887035477 4.33521350225542 20.3900013
9.44000156170496 2.60720220303449 19.13599968
9.69469005778077 2.70516474991667 19.11899948
9.94796597207024 2.77190923932089 19.20199967
10.2321067983911 2.8294366325693 19.30000115
10.5148350429256 2.85574596833974 19.51300049
10.8256030359188 2.81040209299846 19.92300034
11.1100970076863 2.87573400061635 20.02000046
11.3651386492086 2.98150106186802 20.00399971
11.5644539392602 3.23837905971265 19.52799988
11.6787318057745 2.99859330148265 20.23400116
11.9316545746174 3.05753327651739 20.31599999
12.0457911829531 3.50595736458874 19.28199959
12.2704623160694 2.94053619006437 20.92200089
12.3011859699221 3.6195289402099 19.21700096
12.4676587334414 3.15058710169206 20.57699967
12.8075259112331 3.05700355834751 21.11899948
12.8400152923187 3.77501888034048 19.29899979
13.0639801345418 3.19398867707714 21.00399971
13.1248624095328 3.84815530232787 19.38100052
13.4090032358536 3.90568269557627 19.49600029
13.6013968751521 3.31826055972977 21.20100022
13.6906720440484 3.90857848823825 19.75800133
13.8851845560264 3.36798343860868 21.33100129
13.9726939976897 3.91927879526972 19.98800087
14.1686190914541 3.40990180311811 21.47900009
14.450994190542 3.42840662451907 21.67500115
14.7042701048315 3.4951511139233 21.75900078
0.693012624374881 4.25427256589855 20.30800057
2.20355695758988 2.37938807544366 13.81400109
1.95670829042822 3.83734905166242 9.81500054
2.54518986261447 2.32482710394655 14.29100037
1.51322823860903 5.78907799129382 4.38600064
1.85147094734643 4.96826202980047 6.79700089
2.88717591308565 2.27807064681894 14.71599961
1.79878164671621 5.87782344202018 4.43600083
2.05325825552407 5.27977162823152 6.19000054
2.08433505482339 5.96656889274654 4.48400021
2.27990700314117 5.44938738622543 5.99200058
3.76693184961373 2.36339058671344 15.38800049
3.58082419926438 5.16372803448428 8.00900078
4.6165291650036 2.47353665150274 15.93000031
3.86531817103181 5.22905994210217 8.1079998
4.67529256731505 3.08087619053654 14.42099953
4.17643930947161 5.19152058113038 8.51799965
4.73723427864574 3.75845635889573 12.7310009
4.5201910871757 5.1837866958502 8.84600067
4.99368850195446 3.89544147762536 12.63300133
5.02582473759354 4.60565228524884 10.84600067
5.14137392771556 5.08529443079815 9.7310009
8.19092611714017 2.65590096011831 18.91300011
8.44526146776939 2.746058992631 18.92900086
8.75673575165578 2.7163241460287 19.29000092
9.01001166594525 2.78306863543292 19.37100029
9.23807299534869 2.98390245090479 19.05900002
9.46295601573287 3.11449563705126 18.96100045
9.63225394282486 2.70798991348933 20.14100075
9.91604162369912 2.75771279236825 20.29000092
10.1724958470078 2.89469791109787 20.19200135
10.5725390088973 3.43967196426507 19.17500115
10.7688172481082 2.93809948648295 20.63300133
11.1124277676337 3.61857544750413 19.19099999
11.3657036819232 3.68531993690835 19.25699997
11.6207453234456 3.79108699816002 19.22400093
11.9059455861062 3.87202793451689 19.29000092
12.0159857072615 3.53858800385303 20.25600052
12.1911458487668 3.95296887087376 19.33800125
12.3295788638274 3.55568024346766 20.50200081
12.5299535902187 3.83597178442075 19.96100045
12.6130133992551 3.59759860797708 20.64999962
12.8673487498843 3.68775664048977 20.66600037
13.1791761792173 3.66582630825696 20.99500084
13.4619044237518 3.69213564402741 21.19099999
13.7134146108083 3.71985756158419 21.37000084
13.9964960007894 3.75397141172413 21.5510006
12.0294052342317 3.8351595498936 20.23900032
0.408871798054034 4.19674517265015 20.17700005
1.65286194818803 4.72699306069483 8.36499977
1.93537830545459 4.05728803579444 10.33200074
2.21577579004166 3.34075592467712 12.44700051
2.54942760797347 2.41848127638042 15.16800118
1.96645510475392 4.74408530030946 8.62800026
2.02945625242436 5.44507901177712 6.87100029
3.20465366956395 2.38101254449794 15.90600014
2.34375569988341 5.47778028013072 7.10099984
2.79436928972358 5.06636583486129 8.60900116
3.05082351303231 5.20335095359091 8.51099968
4.11456822723023 2.44150635949764 16.65999985
4.39870905355108 2.49903375274605 16.77600098
4.56821886791102 2.78854238985496 16.21800042
4.069012464621 4.89138226607931 10.31500054
4.65714089136067 3.37105580399396 14.77600098
4.68998341789291 4.09687564035642 12.95400048
4.97483053510692 4.1700120623438 13.03600121
5.00908564342549 4.92704995618421 11.13400078
6.52824672553712 2.55126396429571 18.70899964
6.78222893071976 2.63361748243891 18.75800133
7.06742919338036 2.71455841879578 18.80800057
7.32070510766984 2.7813029082 18.88899994
7.60555222488385 2.85443933018739 18.97100067
7.68790574302705 2.60045712500475 19.70899964
7.9741654420274 2.70481160447008 19.70899964
8.26007199558116 2.80136156956593 19.72599984
8.54421282190201 2.85888896281434 19.85700035
8.71901981796069 3.26546531546558 18.97200013
8.83011937545577 2.95543892791018 19.8730011
8.97406145948308 3.37123237671725 18.93900109
9.22839681011231 3.46139040922994 18.95499993
9.796678462754 3.57644519572675 19.18300057
10.0226209194779 3.73045192498168 19.02000046
10.3379798032767 3.78656673644376 19.15200043
10.5940808811389 3.91574734080389 19.08600045
10.8782217074597 3.9732747340523 19.18499947
11.2468349246033 3.82364700833499 19.90600014
11.4994045479996 3.87478246900024 20.03700066
11.783898519767 3.94011437661813 20.11899948
12.1212936794326 3.79189923268716 20.83900071
12.4355931268917 3.82460050104077 21.02000046
0.069357765708941 4.29813323036419 19.5869999
2.61398259560888 2.46248319902469 16.15299988
1.88975191375605 5.12293973540392 8.59399987
2.89777027648314 2.5122060779036 16.2840004
2.22961909154772 5.02935619205937 9.16800118
2.48713275119619 5.18975485389746 9.00300026
3.8343120008218 2.46982862431362 17.33300019
3.19561314613142 4.94654358483561 10.34799958
3.53724605115601 4.8919826133385 10.80700112
4.43239912915512 2.55225277154614 17.710001
3.79334712901815 5.02116321769864 10.72400093
4.5184959890321 3.07233007072922 16.46400071
4.8003060554055 2.38701601708986 18.47999955
4.10305568567162 4.95240579924889 11.21700096
4.60777115792834 3.66264799923771 15.00399971
4.41594255134434 4.95388901012454 11.51200104
4.75545658368943 4.8525009524105 12.10200119
4.89530218053638 4.48643038248235 13.16699982
5.59382387387796 2.64046850410262 18.61199951
5.87761155475223 2.69019138298154 18.77600098
6.16281181741282 2.77113231933841 18.84099961
6.47640497397871 2.78822455895304 19.08600045
6.70340686704239 2.96564483131644 18.85700035
7.09935354175148 2.72875486574842 19.84099961
7.35368889238071 2.81891289826112 19.84099961
7.57857191276489 2.94950608440758 19.74200058
8.03787288059101 3.42141434467672 18.95499993
8.57988051200691 3.64714491413271 18.88899994
9.37304518503279 3.89279288677598 19.00399971
9.62773368110859 3.99075543365816 19.00399971
9.91081507108969 4.0248692837981 19.16800118
10.2797814336798 3.88304607245029 19.8900013
10.8470036499818 3.97468731583863 20.21800042
11.157771642975 3.92934344049735 20.62700081
-0.1846244394737 4.21577971222098 19.53899956
-0.52378532637221 4.32497228430451 18.89800072
2.36515631394636 3.18540724272517 15.10700035
2.61857348641446 2.56394188582804 16.960001
2.09062104377257 4.72282594442515 10.89299965
2.59251135245662 3.37063202945806 14.87700081
2.87326198249027 2.66190443271022 16.95899964
3.21383545117511 2.58392991810465 17.48400116
3.52778175318758 2.60882667208877 17.72900009
3.86764893097926 2.51524312874422 18.32100106
4.18230152388489 2.55574891146731 18.51799965
4.43663687451412 2.64590694398 18.55000115
4.49645971316531 3.27666002612227 16.97500038
4.72254342806788 2.74245690907585 18.55000115
4.97581934235735 2.80920139848008 18.64900017
5.25960702323162 2.85892427735899 18.79500008
4.84346042897797 4.72339097713968 13.59700013
5.59947420102329 2.76534073401444 19.35300064
5.88396817279072 2.83067264163234 19.4829998
6.19791447480319 2.85556939561645 19.71300125
6.5391942343812 2.79320390974986 20.20400048
6.79458902135018 2.90677548537102 20.17099953
6.88280475390666 3.47367987077104 18.79400063
7.1367869590893 3.55603338891424 18.82699967
7.39182860061169 3.66180045016591 18.80999947
7.67808829961204 3.76615492963125 18.77799988
7.96152283503972 3.80807329414067 18.95899964
8.24884197037981 3.93584131671448 18.89299965
8.5038836119022 4.04160837796615 18.89299965
8.78731814732988 4.08352674247557 19.04100037
9.09879243121627 4.05379189587327 19.41800118
9.43936589990111 3.97581738126769 19.9260006
9.72032841720271 3.9631041451907 20.25300026
10.0055286798633 4.04404508154757 20.3029995
-0.810045025372555 4.22061780483917 18.89900017
2.35653956504973 3.68630874415878 14.87899971
2.83462787063407 2.49942221273729 18.38800049
3.08825693037013 2.573971216511 18.45400048
3.3738103384773 2.66271666723736 18.48600006
2.84515160494225 4.80599169709549 12.46700096
3.62814568910653 2.75287469975006 18.51900101
3.15768532516838 4.79967039360165 12.81100083
3.91475853355346 2.86503369358488 18.51900101
3.49967137563956 4.75291393647404 13.27000046
4.28372489614359 2.72321048223707 19.25699997
3.81573655033153 4.82463777667509 13.36899948
4.45747245586253 3.10637329177984 18.42099953
4.12685768877133 4.78709841570329 13.77900124
4.54533504297243 3.66547316281037 17.09099961
4.85341913057162 2.86948332621183 19.41900063
4.46531228477667 4.66229681488079 14.43400002
4.63566964820841 4.27920463442733 15.56599999
5.13791310233905 2.93481523382972 19.5340004
4.74839367475777 4.69641066502072 14.63100052
5.28008945913344 3.31158611078934 18.69799996
5.53350663160155 2.69012075389222 20.53499985
5.53619053699558 3.44076671514948 18.61499977
5.78854827312394 2.79588781514389 20.51900101
5.79264476030431 3.57775183387911 18.5170002
6.04464935098608 2.92506841950403 20.41900063
6.64859869373268 3.82837915731921 18.69700051
7.18848745246908 4.00728264055826 18.76200104
7.44246965765172 4.08963615870146 18.79599953
7.72661048397257 4.14716355194987 18.9279995
8.09487055566954 3.98973131186307 19.68099976
8.38042396377672 4.07847676258943 19.71400071
-1.0661461032347 4.09143720047904 18.96400071
8.69507655668235 4.11898254531253 19.89400101
-1.35169951134188 4.00269174975268 18.89900017
4.83922268361897 4.62973680470582 13.70000077
-1.6081537346506 3.86570663102305 18.97999955
2.1510089151383 2.60073964136201 18.57699967
2.43726861413865 2.70509412082735 18.56100083
2.6908976738747 2.77964312460106 18.62700081
3.17117548122786 3.02380788636869 18.49500084
2.86965989893512 4.65629334228887 13.98500061
3.62426108919411 2.66702504168568 19.85499955
3.09736808289197 4.84932264339125 13.72200013
4.25342501682675 3.43624645343322 18.51200104
4.56150910442594 2.64025661683467 20.85499955
4.36897420694878 3.91588859898252 17.37899971
4.5396847158271 3.54060093289855 18.49300003
4.81690389139491 2.75382819245583 20.80700112
4.48628912430372 4.43455331637928 16.14900017
5.07123924202414 2.84398622496852 20.82200051
5.3019844768216 3.79546600169765 18.59099961
5.87238500214279 3.95734787441139 18.72299958
6.12813293455835 4.07872396440204 18.67399979
6.41368634266553 4.1674694151284 18.70700074
6.66731540240159 4.24201841890211 18.78899956
7.03557547409855 4.08458617881532 19.51000023
7.28920453383461 4.15913518258904 19.57600022
7.57087334202938 4.16203097525102 19.85499955
7.85677989558314 4.25858094034687 19.85400009
1.49966745346024 2.72405803130887 18.73800087
1.75435594953604 2.82202057819105 18.75500107
2.00939759105843 2.92778763944272 18.73800087
2.77840711553802 3.3309384812621 18.47500038
2.56171706951457 4.76407333258607 14.55599976
3.06431366909178 3.42748844635795 18.47500038
3.31490567798723 2.74358697450492 20.49200058
3.31900216516759 3.52545099324013 18.49100113
3.65653858301182 2.68902600300781 20.96700096
3.91087393364104 2.77918403552051 20.98400116
4.16485613882368 2.86153755366371 21.03300095
4.08377394428818 3.83494766262565 18.44000054
4.28146476528546 3.36459324232148 19.835001
4.17269596773783 4.41746107676465 17.01399994
4.36932735239536 3.92369311335201 18.48999977
4.59597610001246 4.09330887134593 18.29300118
4.90992240202493 4.11820562533004 18.50600052
5.19476951923894 4.19134204731742 18.60499955
5.44910486986817 4.28150007983012 18.63800049
5.73289255074243 4.33122295870903 18.76799965
5.81665865067197 4.10845881100435 19.42500115
6.04224796194932 4.25466102588979 19.27700043
6.43819463665841 4.01777106032178 20.26000023
6.69358942362738 4.13134263594294 20.2119999
6.94933735604294 4.25271872593359 20.14599991
-1.86354852161957 3.75213505540189 18.99600029
-2.23413935326399 3.16672584860091 20.12800026
1.50778979873165 2.90356186180711 19.44099999
2.21803592089979 2.6993731645927 20.67000008
2.50217674722064 2.7569005578411 20.8180008
2.7859644280949 2.80662343672002 20.96700096
2.70452908811282 3.77222903131248 18.42500115
3.07081154530891 2.8797598587074 21.04899979
2.70650670261368 4.50726596383076 16.53899956
2.95851129329546 3.85458254945568 18.47299958
3.32514689593814 2.96991789122009 21.06400109
3.57948224656736 3.06007592373279 21.09799958
3.67108817541105 4.39323529912904 17.7840004
3.75414798444742 4.15486212268538 18.47200013
4.1207835870901 3.27019746444979 21.08100129
4.01236793498906 4.33086981326245 18.27600098
4.29382485591587 3.63775124525359 20.30999947
4.32560794610836 4.34015753850759 18.53899956
4.58100273307733 4.45372911412875 18.52200127
4.94820336843455 4.27288333093349 19.34099961
5.62687828767815 4.06230270113592 20.50500107
5.88297936554029 4.19148330549606 20.44099999
1.34816805687604 2.83257962704389 20.54599953
1.63301517409006 2.90571604903127 20.66100121
1.63640537037725 3.6719710390275 18.6930008
2.62782589711494 4.15108346640694 18.44600106
2.85108444844484 3.55444423440461 20.21700096
2.99340206341788 3.24300526506289 21.11899948
2.88428012042367 4.28806858513656 18.34799958
3.30487634730426 3.21327041846058 21.51200104
3.13932176194606 4.39383564638823 18.34900093
3.50419163735582 3.4701484163052 21.07100106
3.45397435485169 4.43434142911133 18.54400063
3.70936914182067 4.54791300473249 18.49500084
4.04584612332514 3.6880744713917 21.03800011
4.3015940557407 3.80945056138235 20.97100067
4.78222500854044 4.06141983751946 20.80599976
5.03761979550942 4.17499141314062 20.75800133
5.29266143703181 4.28075847439229 20.72500038
-2.48988728567954 3.04534975861027 20.1779995
-2.60098684317462 3.35537614616566 19.25900078
1.7838789088704 4.16580963152946 18.55700112
2.03786111405304 4.24816314967266 18.6230011
2.32447395849997 4.36032214350749 18.59099961
2.88689339672838 3.65449033942164 20.98400116
2.92256108683329 4.44274629074001 18.96599961
3.20260542597377 3.7184096652532 21.11499977
3.56980606133098 3.53756388205794 21.95100022
3.6030017333098 4.27118823278989 20.07999993
3.74143474837042 3.87389960538378 21.26200104
3.99753582623256 4.00308020974392 21.16399956
4.22312513750991 4.14928242462936 21.03199959
4.47922621537205 4.2784630289895 20.91699982
-2.77473440289356 2.97221333662288 20.09500122
-2.85638163014359 3.2418045705445 19.29199982
1.5113918822868 4.36583121247418 18.69200135
1.85055276918531 4.25663864039066 19.31400109
2.13575303184591 4.33757957674753 19.39599991
2.87015430256034 3.97588801035701 21.05200005
3.12590223497589 4.09726410034766 21.00399971
3.41110249763649 4.17820503670453 21.06900025
3.69771534208342 4.29036403053936 21.0680008
-3.14334762003711 3.12184106234019 19.30900002
1.62355087612163 4.07921836802726 20.52200127
1.90733855699589 4.12894124690617 20.68600083
2.19183252876332 4.19427315452406 20.80000115
2.50683826711554 4.24258345161665 20.97999955
2.76082047229818 4.32493696975985 21.03000069
-3.42890102814428 3.03309561161383 19.24399948
-3.7137481453583 2.95995918962645 19.14400101
0.942757084198523 4.24297191160789 19.40699959
0.60218361551368 4.32094642621346 18.86600113
0.318042789192834 4.26341903296506 18.75099945
0.0633542931170266 4.16545648608288 18.73500061
-0.478300192852293 3.94753043099638 18.76799965
-0.992974366702655 3.63453762168968 19.03100014
-1.42035098615765 3.17682580837319 19.7840004
-1.64523400654183 3.04623262222672 19.85099984
-1.90133508440397 2.91705201786659 19.94799996
-2.30010692268573 3.09150586847869 19.09700013
-2.55514856420812 2.98573880722702 19.09600067
-2.84246769954821 2.85797078465322 19.14500046
1.22548532873304 4.26928124737834 18.6590004
0.938872484286108 4.15712225354351 18.6590004
0.683124551870551 4.03574616355286 18.70700074
0.427023474008411 3.90656555919273 18.77400017
0.140410629561482 3.7944065653579 18.80599976
-0.114631011960909 3.68863950410623 18.80599976
-0.51432102840378 3.15146996530852 19.79000092
-0.799874436510959 3.06272451458216 19.72599984
-1.05562236892652 2.94134842459151 19.74200058
-1.37027496183215 2.90084264186842 19.54400063
-1.71190786685674 2.95540361336552 19.06900025
-1.96730265382572 2.84183203774437 19.085001
1.27308933493245 3.93866648028714 18.63899994
0.219232693238853 3.46237921648037 18.8029995
0.132429542468702 2.92669288855831 20.06599999
-0.150298702065812 2.90038355278786 19.85300064
-0.463538713185115 2.89109582754272 19.59099961
-0.801993309190458 3.01589742836523 18.91900063
-1.05774124160602 2.89452133837458 18.96800042
-1.34329464971319 2.80577588764822 18.91900063
0.950102509487454 3.02264250639497 19.6760006
0.696826595197979 2.95589801699074 19.57999993
0.383586584078677 2.9466102917456 19.31700135
0.130310669789202 2.87986580234138 19.21800042
-0.181163614097184 2.90960064894368 18.82500077
-0.435852110172992 2.8116381020615 18.80800057
0.911468397631251 2.86016028642203 18.96700096
0.628740153096737 2.83385095065158 18.75399971
0.373698511574347 2.72808388939992 18.77000046
1.24639153917076 2.65731354190464 18.63899994
1.26228308426701 6.46517494877736 2.38600064
0.72098174374427 6.25505340806036 2.38700009
0.497723192414368 6.85169264006268 0.631999970000001
0.186248908527982 6.88142748666499 0.256999970000001
1.41413562629778 6.36445786741183 1.70700074
0.760110259225689 5.73713029610143 2.67500019
0.901015292412388 5.39447326928174 2.44000054
1.33997508251531 4.72550984981918 3.36500073
1.19462041670166 4.27849834353416 4.36500073
1.02850079862893 4.75524469642149 2.95600033
1.20323716559829 3.77759684210054 4.46100045
1.05858879067781 3.3461943645545 4.37600041
1.01712951524895 3.12127602962566 3.85000038
0.973904512587162 2.85733512284937 3.49200058
1.18833442775248 2.06558303160982 4.76200009
0.993115624881288 2.59056905250042 3.20400048
1.04319164920679 2.31458588599564 2.97700024
0.789915734917312 2.24784139659142 2.86200047
1.02744136228918 1.27517289306729 4.47000027
0.776143062500567 1.94346533618135 2.48600006
0.984922650520558 1.02684101502998 3.88000012
0.788997556756196 1.5362180071816 2.3720007
0.478582709209559 1.58936639689237 1.91300011
0.854400093463406 0.907619112263495 2.88100052
0.401667630943737 1.272206471316 1.52000046
1.06798245955693 0.788467838586321 2.31599999
0.81329396348112 0.69050529170414 2.283
0.387541813080409 0.960025896536442 1.18400002
1.09425648078272 0.677792055627145 1.57700062
0.553308285706565 0.475475029279627 1.57800007
0.213087962468306 0.561254058254687 1.00400067
1.11134872039735 0.364198899061259 1.30800057
0.797049272938293 0.331497630707654 1.09500027
0.514321028403779 0.305188294937206 0.86500073
0.230886492976099 0.263269930427779 0.686000829999999
0 0 0
6.68913979100043 6.79833236308396 0.6600008
6.96480512660328 6.66855141146463 0.6760006
6.55437948858428 6.5854562878836 0.979000089999999
6.8307511150803 6.47128436500325 1.01200009
6.58065350981007 6.47478050492443 1.70400048
6.75454232770764 6.16973346816585 1.14600087
5.73564708522578 6.46609312693848 1.77000046
5.97726919977801 6.27528864214957 1.57299996
6.3575362166588 6.3832098906254 2.31000042
6.52754043464396 5.99231319580245 1.53999997
6.83301124593843 5.82990160491884 1.47399998
5.35785208647107 6.41280347904907 2.27800083
5.66508862499845 6.2894144600129 2.31100083
5.90565130321093 6.07519643211553 2.08100033
6.28733090187806 6.21433573806931 2.90100003
6.45945399254271 5.8702661294633 2.22800064
6.63369595588687 5.57302360707421 1.70300007
4.97758506959027 6.30488223057325 2.6760006
5.59700218289721 6.16736739367375 3.06900025
5.76771269177553 5.79207972758978 2.34700013
6.24763735368211 6.02843997498791 3.49600029
6.07494923030292 5.6686907085536 2.39600087
6.35026142045919 5.53110524256479 2.38000012
6.59153038956483 5.33249624340639 2.15000058
4.68779391612409 6.12248260741302 3.01100064
4.96275296083378 5.97709262705472 2.97700024
5.47827468375594 5.61748461879904 2.71500016
5.96173080012835 5.93189000989207 4.07600022
6.20229347834082 5.71767198199469 3.79699993
6.3070364177974 5.2671643357885 2.81200028
6.51426216585243 5.00753180346053 2.41900063
5.11502927740045 3.81174600678514 12.01000023
1.51979674391548 6.62557361061545 1.64700032
4.24862223875322 6.09543166620475 3.59600067
4.73292590419743 5.7372362397354 3.3010006
5.18021992683971 5.94379101144192 4.33300019
5.45659155333573 5.82961908856157 4.39900017
5.76700640088237 5.7764706988508 4.62900067
5.49112917801157 5.21023728979929 2.89000035
6.00898166088118 5.59347072843138 4.46500016
6.25392334263129 4.78469702666653 2.75900078
1.63124944685714 6.32335173742955 2.27400017
1.97323549732831 6.27659528030193 2.55200005
2.28435663576812 6.23905591933014 2.86400032
2.59406519242159 6.17029850088039 3.04400063
2.90553947630797 6.14056365427808 3.3720007
3.83784345528764 6.00453202825423 4.14100075
4.1152745181234 5.91377364848235 4.25600052
4.42321734754396 5.80599365818515 4.37100029
4.73116017696451 5.69821366788796 4.45200062
5.07632453645493 5.72169784008574 4.92800045
5.66452359228392 5.58559558497257 5.28800011
5.83805926473491 5.27274403384451 4.69700051
6.0459913036831 5.02872053025552 4.36900044
5.87224374396416 4.64555772071274 3.18800068
6.14614335233409 4.47675419724597 3.09000016
3.90656555919273 1.30130565611445 4.31900025
1.57954895347736 5.87210248578553 2.37800026
2.26422734531288 5.79419860026927 3
2.60656654123063 5.75524665751115 3.29500008
3.02158307005522 5.93980046789553 4.27900029
3.33058533581552 5.8554340207068 4.4260006
3.57503261394041 5.72706565087381 4.4260006
3.88615375238022 5.68952628990201 4.70400048
4.22849294829798 5.65057434714388 4.99900055
4.57295101689524 5.65844949060269 5.44200039
4.63870669904903 5.03765511005408 3.96500016
5.50242983230223 5.45998174962293 6.06500054
5.43095319391379 4.57167969328754 3.75200081
5.88177867102191 4.85627960868894 4.99800015
6.05354861623998 4.50440548571344 4.32600022
6.1919816313006 4.10711685830733 3.50500012
1.47141581773358 5.55635514199548 2.52800083
1.78289010161997 5.52662029539318 2.85599995
2.26811194522529 5.88004825833365 4.33200074
2.57534848375268 5.75665923929748 4.38000012
3.1628412486885 5.60494795544533 4.72500038
4.4429228634633 4.85882225590434 4.41100026
4.99446542193695 5.29527471333652 6.16500092
4.71788190817298 4.71343227554603 4.37900067
5.37084783890533 5.31734630374797 6.64100075
5.5791330233001 5.08112731452847 6.32900048
5.71544716568122 4.63701160090543 5.36100006
6.03059416221207 3.99711205169666 4.16400051
1.63951305030719 5.81464572162644 4.44099999
1.98326482801128 5.80691183634627 4.8180008
1.67511011132277 5.21867746597263 3.01399994
2.32701660571537 5.7991779510661 5.22800064
2.63566572602909 5.70700698950788 5.375
2.39418486965549 5.20960162799544 3.85000038
2.90921218895244 5.53039895167162 5.26100064
3.04623262222672 5.10189226678756 4.35800076
4.83872827999375 5.31014213663768 7.02900124
5.11262788836369 5.1413386131709 6.94799996
5.38688064218021 4.98033960407362 6.86499977
5.62956219307218 4.81294866239318 6.7670002
5.28206707363431 4.04662304330763 4.40600014
5.69673045701231 4.22337233932252 5.35599995
5.55843870013033 3.93245112042728 4.45499993
5.83763549019901 3.88071531250284 4.70100022
6.04450809280745 3.61327826580538 4.25800038
1.41639575715592 5.72307510732742 4.86600018
2.41042956019832 5.56860928899192 5.70200062
2.44320145764124 4.9102049183822 4.09500027
2.75432259608105 4.8726655574104 4.37400055
4.36904483603809 5.30011280595471 7.3730011
4.61172638693007 5.13272186427427 7.27499962
5.300289378678 5.1406676368224 8.11100006
5.4025603000085 4.63552839002978 6.9619999
5.53972199146142 3.51881185884437 4.35599995
5.84625223909564 3.37981381106922 4.3720007
6.08540233552178 3.13437772569389 4.04300022
5.08218675086822 3.08592617042268 10.19000054
1.59664119309198 5.55850932921964 5.71500016
1.39202872134168 5.18456361583269 4.55000019
1.46272843974763 4.67303243645692 3.36900044
2.18484024892097 5.42240707410648 6.09099961
4.14995340097787 1.14952374317299 4.23700047
1.77349643274085 4.62768856111563 3.63199997
2.11724821044495 4.61995467583546 4.02500058
2.42907563977792 4.59802434360264 4.35300064
3.83833785891285 5.32412669632237 7.84500122
4.08066626435825 5.14893124027244 7.69799996
5.29216703340659 4.96116380632415 8.69700051
4.60212083078301 3.53777576932589 4.35100079
5.32529207629609 4.31056395008391 7.12199974
4.90971051475698 3.4221912646592 4.40100003
5.60025112100578 4.16517396972561 7.08900071
5.77145603350932 3.10948097170978 4.64600087
5.98044750879726 2.88887101122925 4.35100079
6.01816344249234 2.33972984179237 3.05500031
6.25801982981165 2.10990278515602 2.74400044
5.18657654487821 2.62761400984699 9.15699959
1.77476775634855 5.34711646489494 6.50399971
2.08694833112811 5.33299064703161 6.86499977
2.42928752704587 5.29403870427348 7.15999985
1.98142847168904 4.38366505752664 4.37100029
2.73934922914592 5.23308580019322 7.40500069
3.08168842506368 5.19413385743509 7.70000077
3.42579334821435 5.19420448652441 8.12700081
4.60113202353257 1.44192817294388 5.51600075
3.70216497471037 5.08003256364406 8.17500115
3.63330161262664 3.55815226159374 4.3210001
3.91037953001583 3.45958936745237 4.40400029
5.01261709789132 5.0050950998791 9.5680008
4.18498542927893 3.30639487272457 4.35300064
5.1843870431094 4.6532209769036 8.89500046
5.32176062183026 4.23251880638903 8.02700043
5.49317742160175 3.87284016904403 7.33800125
5.31921797461486 2.79366299883042 4.43500042
5.69842555515591 2.87817070419778 5.09100056
5.49028162893977 2.42617984711593 3.7130003
5.83791800655627 2.50429561990014 4.35200024
5.90543941594298 1.92252381119897 2.95800019
6.3528746967639 1.44086873660413 2.30300045
6.52358520564222 1.06558107052016 1.56400013
6.76273530206837 0.820144985144835 1.22000027
1.73860566261843 5.23926584550843 7.25300026
1.42797892780385 4.59639987454836 5.26900006
2.1153412250334 5.26914195028937 7.77799988
1.84066469668098 4.03811223804497 4.39900017
3.04764520401306 5.13311032426552 8.54800034
2.63503006422524 3.61896390749537 4.31700039
2.91104854527467 3.49698747024553 4.35100079
3.21828508380206 3.37359845120936 4.39900017
4.42844390015339 1.08217890650957 4.41700077
4.38931538467197 5.05676027871423 9.98900032
4.6632149930419 4.88795675524745 9.89100075
5.04277571902953 4.9802689749843 10.57900048
5.35509755198772 4.27793331081963 9.21899987
5.35665139195268 3.62094152199623 7.59600067
4.83929331270829 2.55730275143228 4.34800053
5.08056228181393 2.35869375227388 4.13500023
5.59453016477113 2.6560775328416 5.4630003
5.86807662769448 2.47946949500534 5.33100033
5.45673281151436 1.6847509820145 2.90400029
5.97281956715106 2.02896184879915 4.38100052
5.69694234428026 1.46272843974763 2.6420002
6.35252155131732 1.43306422223465 3.34700013
6.48812940280527 0.97333947987263 2.32999993
6.52372646382086 0.377371224218813 0.886000640000001
6.83272872958116 0.293004777030086 1.0510006
5.32500955993883 2.23032538244089 8.3199997
14.8794302463367 3.90953198094403 19.47900009
15.1554487273862 3.78755554369419 19.47999955
1.83120039871255 5.21161455704096 8.37100029
2.14090895536602 5.14285713859121 8.58399964
1.86679745972814 4.61564630138715 6.960001
1.4536879163151 3.78190521654886 4.40200043
2.45379582103874 5.14434034946686 8.97700119
5.01332338878449 1.56404586837236 6.3029995
1.7282938155782 3.62871072182106 4.31900025
2.69612422648413 4.96914489341693 8.84600067
1.97309423914968 3.50814686635756 4.35300064
2.2494658656457 3.39397494347721 4.38500023
3.97853660120638 4.96586064076371 10.38700104
4.9764550041612 4.89724448049259 11.40200043
5.18579962489573 4.68443903438155 11.13899994
5.18664717396753 4.01183821681918 9.45100022
5.39429669655845 1.68757614558716 7.05700112
4.63679971363748 2.23018412426226 4.36700058
5.43123571027106 3.19526000068484 7.72900009
5.67052706487584 2.26161406900816 5.67800045
5.22408059130535 1.38245847973927 2.97200013
5.80896007993645 1.86432544160205 4.85800076
6.15709086117817 1.2620358824544 3.77500058
5.81242090531297 0.558146378324756 1.62800026
6.29587702168537 0.872551769417783 2.95600033
6.05333672897203 0.351732864796872 1.38100052
6.47047213047611 0.583113761398188 2.44799996
13.8783335343627 3.90790751188974 19.40100098
14.1571771789848 3.84836718959582 19.61499977
14.4331956600342 3.72639075234598 19.61400032
14.7109798683166 3.64343688694358 19.7119999
14.9866452039194 3.51365593532425 19.69600106
15.164771767176 3.30226307099955 19.39900017
2.07670711317719 5.10665973031643 9.5170002
2.3857093789375 5.0222932831277 9.66500092
14.5021296512073 3.17583700112276 19.39800072
1.97436556275738 4.22757477013686 7.22100067
1.52544707106081 3.29378758028155 4.35100079
2.69506479014438 4.94573135030847 9.86100006
3.04022914963481 4.96921552250625 10.35300064
2.65296985291167 2.63276993336711 21.00099945
2.34432073259795 2.72494089492532 20.8369999
2.03602475773081 2.82491637085303 20.72299958
1.72666934652392 2.90147830367227 20.54199982
1.31165281769934 2.71692449328789 19.57400132
3.41661156660319 4.9912871129177 10.84500122
3.69157061131287 4.84589713255939 10.79599953
4.69478619596644 4.89434868783061 12.1230011
3.43730588977296 2.68330504677316 21.07100106
3.16058111783037 2.78967245528403 20.99100113
2.91613383970547 2.91804082511702 20.99100113
2.12332231212618 2.68019736684323 19.44799996
1.84589124929041 2.77095574661512 19.31700135
1.46844939598228 2.7254706130952 18.74399948
4.97257040424879 4.81139482242822 12.27000046
4.18971757826314 2.71964371322658 21.06400109
3.94491715469166 2.84020756869008 21.06500054
3.70046987656677 2.96857593852308 21.08100129
3.56239000695274 3.37366908029867 21.93400002
2.93993584280518 2.75273344157142 19.62100029
3.18000411739244 3.21892074560591 21.04800034
2.49228867471631 2.53837415549542 18.53899956
2.90398563634301 3.34089718285575 21.01600075
2.21768277545321 2.69156865022321 18.60499955
1.94201743985036 2.82134960184254 18.58900071
1.66564581335434 2.93552152472289 18.52300072
5.14257462223394 4.42049812760527 11.49900055
10.5074896176367 4.07607537355267 19.07600022
4.97235851698084 4.11538046175738 10.54800034
5.14200958951941 3.71667925256494 9.76099968
4.9080860457027 2.69495884651041 20.84099961
4.66434505847097 2.83893624508238 20.89100075
4.35604908360383 2.93891172101009 20.77499962
3.84208120064663 2.64152794044237 19.43000031
4.11725213262427 3.1921523207549 21.10300064
3.42847725360838 2.48819218753594 18.52900124
3.11841555150833 2.54914509161621 18.31599999
3.59925839157602 3.49712872842416 21.21899987
2.84169077956573 2.65551250012707 18.2329998
3.36010829514988 3.74256481379949 21.56299973
2.63269930427779 2.87612246060759 18.51300049
3.04616199313741 3.71766805981537 21.08800125
2.08136863307209 3.13568436384625 18.47999955
1.80676273380899 3.28887885857404 18.52900124
2.15284527146053 4.02398642018164 20.79199982
1.53286312543906 3.45768238204082 18.61199951
1.87612049951793 4.1303538286925 20.6779995
1.56711823375763 4.21472027588123 20.51399994
4.27998155440981 1.94915097787134 4.34899998
5.41605045606798 2.85966588279682 7.95600129
5.27881813552574 2.59215820701004 7.13700104
5.53491921338788 2.72133881137018 20.61800003
5.25925387778504 2.8511197629895 20.60000038
4.36572526884021 2.46142376268494 18.56700135
4.08970678779078 2.58340019993478 18.51799965
4.36734973789449 3.18865618083373 20.38700104
3.78211710381681 2.69898470460146 18.46899987
4.19557979267642 3.54053030380924 21.04400063
3.40290952327576 2.6144769992341 17.79599953
3.98729460828165 3.77674929302874 21.3730011
3.05527314565925 2.53636122644989 17.15800095
3.26165134464248 2.94932951168429 18.43600083
3.67582032439526 3.80648413963105 21.06100083
2.710815077062 2.52848608299109 16.7310009
2.98598600903963 3.07911046330362 18.42000008
3.39980184334583 3.92846057688089 21.04500008
2.67663059783274 3.15567239612286 18.25699997
2.91705201786659 3.62966421452684 19.71599961
3.12413650774298 4.05824152850021 21.02900124
2.84776488124696 4.17241345138056 20.94600106
2.53911576093324 4.26458441293878 20.79899979
1.88791555743381 3.69969295658429 18.63400078
2.02514787797605 3.96720063237106 19.47000122
1.7494825423732 4.09698158399039 19.43900109
1.4727577704306 4.20334899250125 19.3560009
4.69160788694719 1.36744979825949 3.38100052
5.38179534774941 2.1026279889564 6.03800011
6.49596923171942 2.52926300297357 20.24300003
6.22206962334948 2.69806652644034 20.36000061
5.94746372408638 2.85126102116814 20.40699959
5.53174090436864 2.65109818204478 19.40699959
5.25289725974654 2.71063850433871 19.2119999
4.87368967920549 2.62613079897134 18.55500031
4.59625861636973 2.71688917874323 18.44099999
4.11386193633707 2.42589733075867 17.12899971
4.35534279271066 2.92330269227111 18.65400124
4.42378238025849 3.05315427297976 19.06400109
4.04598738150378 2.99986462509035 18.47400093
4.28746823787737 3.49726998660279 19.99900055
3.32458186322361 2.26609901617977 15.8010006
4.18449102565371 3.98680020465643 21.09900093
3.11453095159592 2.46329543355183 15.9980011
3.90847254460428 4.10877664190627 21.06500054
3.25126886851293 3.41120844127047 18.50800133
3.63280720900143 4.2385575935256 21.04899979
2.52633189576693 2.599397688665 15.62100029
2.97419095112375 3.50977133541184 18.44200135
3.28623026772467 4.18385536384986 20.49100113
2.73186254567835 3.68496679146177 18.57299996
2.9400064718945 4.13695764854361 19.96599961
2.21528138641644 4.02116125660898 18.77000046
2.31776419501489 4.2120363704872 19.36000061
1.94067548715334 4.17435575133677 18.8199997
1.66395071521074 4.28072315984763 18.72200013
1.38757908871473 4.39489508272798 18.67200089
4.89812734410905 1.09220823719254 2.93800068
5.07307559834637 0.81057474354243 2.4460001
7.30905130793259 2.52375393400687 20.03700066
7.03409226322291 2.66914391436518 20.07100106
6.75807378217347 2.79112035161502 20.0699997
6.41149684089672 2.73641812193928 19.51300049
5.99895233019822 2.60649591214132 18.710001
5.72222755825562 2.71286332065218 18.62800026
5.41428472883506 2.82064331094937 18.52900124
5.13967882957196 2.97383780567717 18.56299973
4.55515248638744 2.49977535818387 16.6930008
4.20963498145043 2.4684866716166 16.20100022
4.55501122820881 3.18798520448522 18.39900017
4.93478384146439 3.97631178489291 20.80999947
3.89851384301063 2.5060260325884 15.90600014
4.31197653187025 3.34757163179617 18.4980011
4.45168087053856 3.66971090816937 19.4810009
4.69139599967924 4.12809369783437 20.87599945
4.0363111962674 3.4773525834155 18.47999955
4.34587849474223 4.0968050112671 20.39900017
3.00216007049314 2.05389391732792 13.70800019
2.76230368317383 2.28372097396427 13.98800087
3.69241816038467 4.17329631499702 19.80900002
2.38344924807937 2.2070177829664 13.34799958
3.2103746257986 3.89010898138195 18.51399994
3.41463395210232 4.25625018039942 19.64599991
2.41911693818427 2.99527373428477 15.31599999
2.66059779455786 3.49267909579721 16.85900116
2.97157767481903 4.14334958112677 18.8579998
2.66045653637923 4.18088894209856 18.54800034
2.38549749166955 4.32627892245687 18.58100129
5.31575714923835 0.643183801861991 2.33200074
7.93835649374386 2.60476549945306 19.79400063
7.66198486724784 2.71893742233341 19.74399948
7.38314122262575 2.77847774462734 19.54800034
7.00287420574495 2.67055649615151 18.82699967
6.69457823087781 2.77053197207922 18.72800064
6.41785345893521 2.87689938059008 18.64599991
6.11061692040782 3.00028839962625 18.61300087
5.83495158480498 3.13006935124558 18.59700013
5.55928624920213 3.25985030286491 18.59700013
4.83223040377662 2.4012124640425 15.54700089
5.62617199678498 4.04669367239694 20.61499977
4.41897960218496 2.25568122550556 14.72599984
4.6250046557216 2.66084499637047 15.97299958
5.35015351573555 4.16867010964678 20.59799958
4.55536437365539 3.19578971885471 17.20300103
3.6577392775302 2.02422969981493 13.21800042
4.48607723703577 3.73853895570844 18.46800042
3.38454596005343 2.20864225202068 13.35000038
4.2107650468795 3.87612442169726 18.46700096
4.35046938554782 4.19826369807045 19.46700096
3.93651229306298 4.03712343079454 18.55000115
2.66299918359463 2.16308648941145 12.36600113
3.66084695746013 4.16690438241387 18.5170002
2.35187804515483 2.20062585038324 12.05500031
3.38518162185728 4.29668533403319 18.5170002
2.5240717649088 3.24078044874941 14.85900116
3.10916314080785 4.41866177128303 18.48500061
2.52287107039041 3.9055767519423 16.51600075
2.83067264163234 4.48600660794645 18.3029995
9.03593254172446 2.66458833810426 20.00200081
8.72551769417782 2.71773672781503 19.75699997
8.44914606768181 2.83190865069538 19.72500038
8.06817275990785 2.70837837348057 18.97000122
7.79003540617891 2.78352772451348 18.82400132
7.54523498260744 2.90409157997699 18.84000016
6.99319802050857 3.14804445447666 18.79100037
6.43890092755157 4.03338008906076 20.31599999
5.92104844468196 3.65014665042866 18.74300003
6.05934020156394 3.94106786932391 19.64400101
6.16323559194872 4.16316104068008 20.31599999
4.88407215533504 2.16425186938517 13.80700112
5.78084970238843 4.00841270598732 19.47900009
5.50412493044583 4.11478011449819 19.41500092
4.19056512733494 2.0470428956642 12.67500115
5.12315162267187 3.99124983728338 18.64500046
4.60423970346251 3.58460285554282 16.98800087
4.8478394325156 4.1288353032722 18.64500046
4.57040836967984 4.21959368304408 18.51399994
4.29509617952357 4.3571791490329 18.53100014
4.01801826213439 4.45574204317427 18.43300057
3.63810439070018 4.35562530906793 17.74399948
2.15256275510327 1.94374785253862 9.95400048
2.29050136653867 2.22686455706437 10.80599976
3.35820130973833 4.39175208825339 17.48200035
2.0495855428796 2.43327807059226 11.05200005
2.35738711412152 3.01370792659641 12.84000016
2.63467691877866 3.61115939312588 14.67700005
3.01374324114107 4.38387694479459 17.05500031
2.35830529228264 3.72533131600623 14.62800026
2.70262210270127 4.42141630576638 16.76099968
5.93573929525982 1.20948784000282 4.46400071
5.65809634515611 0.604231859103864 2.62700081
10.3811341768492 2.66628343624786 20.41699982
10.1033499685669 2.74923730165025 20.28700066
9.82556576028451 2.83219116705264 20.15600014
9.38003746487513 2.66465896719357 19.23699951
9.06926947188191 2.71000284253486 18.97599984
8.79254469993931 2.81637025104572 18.91100121
8.51687936433646 2.94615120266504 18.91100121
8.24050773784045 3.06032312554539 18.87700081
7.99747304150189 3.21990955285635 18.97700119
7.44296406127694 3.4092308267696 18.77900124
7.13572752274955 3.53261984580577 18.72999955
7.30770935523557 3.87676008350111 19.79700089
7.06644038612993 4.0753690826595 19.99399948
6.7212760266395 4.05188491046172 19.51799965
6.37823053982858 4.07522782448087 19.17300034
6.06710940138877 4.11276718545266 18.89599991
4.95992779726111 2.45799825185308 13.45100022
5.78861890221326 4.18011202211608 18.73200035
4.82043534586074 2.83187333615072 14.18900109
5.51154098482408 4.27867491625745 18.63400078
4.06145515206412 1.95903905037567 11.1060009
4.65078427332217 3.23057454534316 15.01000023
5.23481621288148 4.38504232476831 18.56700135
3.71805651980661 1.97457745002533 10.74500084
4.61624664864634 3.84995634410544 16.50200081
4.92616709256776 4.47721328632653 18.43799973
3.40870110859973 2.05113938284457 10.56500054
4.51468201820901 4.37070461963703 17.68300057
3.06600876723538 2.08228681123321 10.23800087
4.16775193148567 4.30819787559181 17.07699967
2.58396523264931 1.79909947761814 8.9430008
3.8945586140089 4.49261042779756 17.22400093
2.3419899726505 1.98209944803755 9.10700035
1.99470674048057 1.91178818962284 8.5
3.16771465585135 4.32998694964599 15.94600106
2.02825555790598 2.65321705472428 10.38500023
2.33958858361373 3.31169205442332 12.40299988
2.95801688967024 4.53498788138754 16.17500115
2.37207796469939 4.02970737641629 14.20800019
2.6153245483059 4.56613530977618 15.84799958
6.14013987974218 0.887419192718936 3.90600014
12.6001589049994 4.00484593697683 19.26799965
11.6653122788044 2.70202175544208 20.87400055
11.3548974312577 2.75517014515285 20.66100121
10.9788681597359 2.74090306911089 20.20300103
10.7003776605604 2.8082479057743 20.02200127
10.2878331498619 2.67832569597634 19.21899987
10.0107552324727 2.77688859011771 19.13700104
9.73403046053014 2.88325599862858 19.10400009
9.45624625224779 2.96620986403097 18.95600129
9.21250526501606 3.11018726260294 19.02200127
8.90456243559551 3.21796725290014 18.94099999
8.32060112512552 3.44772368044717 18.82600022
8.49117037582521 3.76064586066455 19.79400063
8.11090335894441 3.65272461218872 19.07299996
