ply
format ascii 1.0
comment Saved by Easy3D (liangliang.nan@gmail.com)
element vertex 134
property float x
property float y
property float z
end_header
121.015 0.219989 2.15701
12.8854 0.00611843 -0.307995
157.756 0.160852 4.58701
161.893 0.293854 4.96201
141.782 0.22788 3.494
27.4623 0.118423 -0.410995
86.8439 0.0539688 0.585007
153.983 0.138445 4.242
45.5888 0.211951 -0.306995
47.0279 0.0883797 -0.315998
48.1736 0.0286722 -0.227997
49.4879 0.192013 -0.351997
52.0172 0.120723 -0.251995
159.168 0.267966 4.732
91.568 0.164058 0.670006
92.1692 0.217964 0.706001
127.01 0.228028 2.371
93.5385 0.129563 0.777
73.9585 0.0478504 0.260002
145.29 0.293094 3.717
95.3135 0.172582 0.798004
43.1006 0.0594965 -0.294998
85.5025 0.121314 0.550003
128.226 0.272903 2.54301
145.849 0.326176 3.674
90.8974 0.2152 0.650002
94.2238 0.294993 0.849007
97.9832 0.275519 0.943001
46.2869 -2.84217e-14 -0.254997
95.9986 0.268135 0.842003
156.051 0.257354 4.50201
98.2206 0.218829 0.855003
98.5698 0.18273 0.914001
48.1318 0.0427868 -0.271996
103.196 0.209293 1.2
104.622 0.358287 1.355
146.492 0.331028 3.732
105.711 0.235876 1.19701
50.6752 0.0133762 -0.289997
100.596 0.245877 1.03201
52.3804 0.0566272 -0.323997
156.583 0.381368 4.505
159.741 0.377866 4.812
137.03 0.208723 3.149
148.854 0.281258 4.02901
138.778 0.377613 3.201
110.687 0.22634 1.568
145.053 0.314846 3.755
146.94 0.378457 3.734
148.351 0.31088 3.845
149.497 0.390926 3.939
150.224 0.262734 3.86401
161.111 0.359342 4.925
152.446 0.353181 4.216
152.837 0.407783 4.22
154.556 0.35316 4.30801
154.892 0.379997 4.333
114.166 0.137918 1.723
157.547 0.301301 4.566
151.104 0.280773 4.05701
159.056 0.317251 4.716
160.776 0.472259 4.93401
161.181 0.428987 4.944
76.5303 0.137137 0.296005
151.887 0.285161 4.162
118.848 0.122369 1.939
119.338 0.330374 2.056
16.7431 0.140049 -0.345997
46.7763 0.103191 -0.649998
47.7968 0.190642 -0.306995
49.0125 0.130702 -0.269997
49.9347 0.0647499 -0.317997
51.5977 0.0522388 -0.201996
52.3945 0.0985068 -0.224998
53.1776 0.242649 -0.263996
59.0609 0.12528 -0.138996
91.2746 0.192984 0.738007
96.376 0.280857 0.895004
98.8912 0.167687 0.986
102.847 0.245391 1.153
112.629 0.143024 1.772
113.761 0.251067 1.651
115.355 0.273726 1.764
120.889 0.192456 2.122
123.754 0.322695 2.23701
139.127 0.376453 3.242
140.986 0.391242 3.305
145.472 0.313454 3.731
146.576 0.372676 3.772
148.729 0.393479 3.899
149.832 0.278009 4.01801
150.503 0.331682 4.065
151.65 0.411728 4.146
153.215 0.420505 4.25401
153.829 0.236783 4.396
156.457 0.318897 4.484
157.169 0.288579 4.52901
158.693 0.311471 4.647
159.769 0.321872 4.79301
161.628 0.3716 4.938
11.39 -0.00289043 -0.245998
14.3532 0.10606 -0.235996
18.2382 0.0442426 -0.318996
43.7015 0.0435253 -0.344997
47.2936 0.150387 -0.359997
49.4174 0.0175536 -0.356998
51.2065 0.0675138 -0.288998
51.8212 0.0235454 -0.309998
54.8401 0.0554457 -0.296997
57.3001 0.159079 -0.158997
79.8702 0.0491796 0.513
90.2125 0.189524 0.590004
90.9531 0.173088 0.705002
92.3922 0.0495171 0.755005
92.8818 0.187646 0.751007
104.621 0.218534 1.258
109.331 0.14699 1.472
113.468 0.210115 1.749
116.095 0.117537 1.82401
119.561 0.161928 2.024
123.963 0.112368 2.246
146.072 0.122791 3.542
146.744 0.246341 3.896
147.96 0.326155 3.894
150.419 0.255097 4.049
153.298 0.252523 4.343
153.746 0.334889 4.291
155.185 0.316133 4.444
156.862 0.240687 4.58801
157.505 0.315416 4.58601
158.371 0.291575 4.69
159.978 0.251299 4.894
160.496 0.333434 4.866
161.362 0.239716 5.006
