ply
format ascii 1.0
comment Saved by Easy3D (liangliang.nan@gmail.com)
element vertex 624
property float x
property float y
property float z
end_header
304.095 10.7317 -2.28
1.79648 0.485066 6.84
88.8704 0.30892 -7.83
6.00381 0.10158 -0.73
298.401 10.5514 -2.65
6.29358 9.07467 -0.559998
187.297 9.92975 -9.29
288.689 10.5033 -3.64
300.311 10.5392 -2.68
262.739 1.98453 2.03
10.4019 0.520551 5.95
234.866 1.5985 0.310001
294.491 1.62418 -3.34
273.809 10.4166 -4.93
155.712 1.32774 -1
18.5856 0.0894573 -2.05
2.12895 0.51424 6.79
305.754 10.2824 5.45
276.77 10.2175 3.33
17.712 0.0972458 -1.79
218.392 9.77242 0.59
3.78169 9.02315 -0.399998
287.37 1.91361 3.65
21.2213 8.75071 5.19
23.4991 9.12683 -2.5
281.779 1.9847 3.31
280.675 1.97959 3.21
23.9929 8.803 4.93
308.306 10.2457 5.54
160.254 1.32973 -1.33
21.6719 0.106936 -2.27
62.2214 9.33774 -5.66
11.8003 0.650609 5.77
253.213 1.905 1.49
251.05 1.94286 1.38
23.7601 9.24886 -2.54
31.0628 9.2655 -3.21
253.965 10.0926 2
17.2789 9.15378 -1.84
39.857 9.16334 -4.04
179.831 9.7923 -9.33
0.146678 0.384356 6.92
3.86468 8.97169 -0.380001
41.6861 9.09254 -4.21
42.2233 9.15803 -4.19
1.44412 0.384387 6.88
2.46642 0.444719 6.74
6.2386 9.11024 -0.610001
6.56584 9.12059 -0.720001
251.531 9.97078 1.8
163.795 1.35042 -0.98
241.37 1.30633 -7.56
9.19893 0.510455 5.98
209.465 9.98042 -8.73
39.1175 0.205854 -4.15
23.596 9.2418 -2.41
234.939 10.1413 -7.53
230.651 10.1175 -7.69
243.358 9.85571 1.27
228.733 10.1035 -7.96
48.775 0.175786 -4.77
68.0706 0.745456 1.43
213.063 1.22739 -8.92
213.422 1.11562 -8.81
266.985 10.3722 -5.42
229.124 1.24517 -7.86
213.806 1.21546 -8.86
20.1686 0.0668201 -2.31
25.3034 0.102505 -2.53
21.5318 0.186434 -2.32
219.983 1.26547 -8.36
218.002 1.13935 -8.45
27.5668 0.543441 4.37
52.2636 9.33778 -5.12
28.3645 0.495947 4.35
187.023 9.88007 -9.21
224.54 10.1871 -8.05
33.758 9.04305 -3.56
49.5658 9.31768 -4.71
31.2639 0.541082 4.12
299.837 10.3507 5
30.8822 9.31573 -3.16
189.551 9.87053 -9.27
102.495 0.898685 0.0499992
273.197 1.91826 2.59
83.0159 0.367962 -7.38
34.6148 0.460624 3.83
273.782 10.4363 -5.03
23.9936 0.641112 4.83
40.8604 9.15593 -4.15
29.2581 0.0933781 -3.07
213.201 1.02285 -8.82
123.751 9.7986 -8.53
141.99 9.60371 -9.29
52.1544 0.780739 2.68
193.697 0.985604 -9.37
211.78 1.04502 -8.93
280.177 1.9396 3.13
28.7784 0.701157 4.41
272.485 1.69056 -5.27
66.2459 9.46325 -5.84
66.9973 9.59893 -6.12
157.524 0.844189 -9.43
154.78 0.776007 -9.29
29.145 9.13392 -2.89
25.8281 0.12284 -2.71
55.0258 9.35619 -5.29
300.161 2.18412 4.81
289.254 1.68973 -3.94
60.7184 9.41513 -5.75
295.489 1.48044 -3.29
189.037 9.53905 -0.540001
287.536 2.04194 3.68
1.71663 0.547819 6.85
26.6686 9.21035 -2.66
266.284 10.2997 -5.62
77.6041 9.48327 -6.62
67.2428 0.801323 1.46
294.764 1.67387 -3.39
67.546 0.725121 1.47
157.333 1.09182 -1.26
68.7947 0.783295 1.57
30.3086 0.255323 -3.18
218.506 1.31944 -8.41
26.4503 9.12511 -2.72
185.616 9.83365 -9.26
137.057 0.961125 -1.12
159.961 9.84048 -9.19
122.371 9.73629 -8.97
159.406 9.711 -9.15
305.017 10.5482 -2.22
281.133 2.11161 3.25
111.451 9.65926 -8.27
29.3858 0.0862307 -3.08
278.976 10.4514 -4.61
294.859 2.13385 4.07
23.4931 9.22176 -2.45
295.573 2.01654 4.23
275.93 2.06256 2.96
6.38914 9.06837 -0.610001
0.877316 0.562288 6.99
1.63234 0.478006 6.84
176.975 1.03827 -9.31
4.02803 9.0925 -0.279999
96.5317 9.42952 -7.6
99.7741 9.07518 0.740002
6.19803 9.08097 -0.649998
179.464 1.01077 -9.35
204.116 1.36012 -0.77
303.488 10.7666 -2.28
299.019 10.3267 4.91
303.287 10.6278 -2.2
299.081 10.6662 -2.86
288.426 10.6088 -3.7
303.762 1.72178 -2.43
90.6134 0.27829 -7.86
274.544 10.4921 -5.01
2.49258 0.538805 6.75
291.126 1.65572 -3.64
24.7727 0.643388 4.58
255.14 10.1186 2.1
254.851 10.1262 2.1
238.662 1.13485 -7.72
12.2428 0.608658 5.85
30.7555 9.32664 -3.24
35.0589 0.191175 -3.63
266.738 1.7847 2.1
156.164 0.618353 -9.73
40.8845 9.24249 -4.17
5.42424 8.63123 6.46
208.327 1.34046 -0.639999
1.14096 0.460588 6.92
14.3705 8.726 5.69
5.56507 -0.0764393 -0.68
6.43812 0.147033 -0.75
231.624 10.1185 -7.82
252.882 1.76584 1.41
245.469 1.81656 1.07
162.829 1.14078 -1.38
244.525 1.80722 0.990002
198.774 9.91252 -8.97
265.875 10.4621 -5.57
217.664 10.3071 -8.23
27.9158 9.02974 -3.04
32.5538 8.91168 4.36
220.24 1.14119 -8.25
219.255 1.33009 -8.24
259.933 10.3225 -5.91
3.48979 9.02324 -0.329998
189.899 0.857935 -9.61
31.3202 9.14122 -3.21
24.2325 0.100316 -2.75
187.081 9.85203 -9.07
274.981 10.4313 -4.97
268.641 10.4955 -5.43
179.153 1.05686 -9.34
178.672 0.959565 -9.36
276.827 10.1895 3.25
160.114 9.80614 -9.17
205.231 9.56851 -0.16
225.284 10.0652 -8.09
283.374 2.00722 3.19
156.218 1.16282 -1.18
150.154 0.704205 -9.32
266.914 10.3513 -5.48
57.3191 9.20496 -5.44
29.2769 0.16112 -3.07
293.843 2.0961 4.21
291.591 1.6928 -3.78
136.092 9.38718 -0.23
66.8596 9.33719 -6.15
66.5685 0.709103 1.54
310.587 10.4019 5.71
33.8892 0.183997 -3.53
197.139 1.23256 -0.889999
293.403 2.02806 4.08
281.674 2.07464 3.24
81.8161 0.369157 -7.26
171.484 1.12188 -1.39
106.45 9.639 -8.04
105.97 9.65922 -8.09
276.728 2.01883 2.94
83.5719 9.48191 -7.34
276.192 2.07461 2.89
292.067 1.54001 -3.6
3.6644 9.06793 -0.34
3.89608 9.08459 -0.259998
302.077 10.4738 -2.54
96.0746 9.41879 -7.64
95.2966 9.42027 -7.56
5.18017 9.15321 -0.48
180.033 1.07165 -9.25
98.5926 0.394673 -8.24
6.66454 9.12558 -0.630001
90.9056 0.395715 -7.58
303.363 10.6675 -2.48
304.185 10.7065 -2.3
227.552 10.1724 -7.96
305.829 10.5534 -2.1
183.053 1.0833 -9.22
121.192 0.71453 -9.25
54.5789 0.751159 2.54
50.9597 8.73137 2.98
49.2302 9.27722 -4.83
52.9305 8.81986 2.77
129.833 9.62365 -9.12
131.814 9.51851 -9.14
53.0893 9.27439 -5.13
59.4365 8.88775 2.61
137.145 9.56041 -9.32
55.8009 9.46093 -5.23
139.45 1.16742 -1.21
62.2093 9.5276 -5.6
47.0309 0.202653 -4.63
201.448 1.33164 -0.829998
48.8082 0.178704 -4.78
66.6894 9.42506 -6.06
67.3562 9.37342 -6.04
62.8642 8.73325 2.21
75.9804 9.47665 -6.51
217.681 1.26908 -8.41
217.416 1.24951 -8.39
161.227 1.21318 -1.27
288.047 10.4103 -3.73
280.598 1.93612 3.11
58.4176 0.441804 -5.85
29.5906 0.122552 -3.03
105.272 9.71547 -8.04
177.984 9.79913 -9.42
106.019 9.60484 -8.04
94.1813 1.09437 0.220001
119.887 9.31633 0.0699997
111.525 9.69143 -8.3
187.708 10.0099 -9.23
219.454 10.2108 -8.4
38.5274 0.183448 -3.86
282.972 10.4753 -4.3
34.8031 0.0879577 -3.48
139.702 9.42123 -0.299999
77.3397 9.23243 -6.77
132.881 9.85442 -8.77
135.349 9.86539 -9.03
213.961 0.957386 -8.85
141.298 9.9138 -8.99
242.905 1.3456 -7.43
211.894 1.22021 -8.9
79.8756 0.856096 0.740002
19.9369 0.516447 5.21
85.422 9.48637 -7.37
13.6629 8.63086 5.85
11.4277 8.75782 6.02
218.149 10.0669 -8.37
218.483 10.0998 -8.39
235.065 10.1267 -7.58
306.18 10.2978 5.57
81.7423 0.336978 -7.25
82.5952 0.371433 -7.37
211.863 10.0918 -8.6
227.552 10.1724 -7.91
4.13171 8.99879 -0.389999
174.452 9.92982 -9.18
6.37996 9.15201 -0.599998
86.3828 0.461468 -7.57
179.399 9.87189 -9.14
305.654 10.6225 -2.01
302.983 10.7002 -2.36
3.50026 9.06087 -0.34
299.393 10.6202 -2.63
307.197 10.3393 5.59
294.796 10.6537 -3.04
291.771 10.5058 -3.37
9.51675 0.486941 6.12
9.9864 0.542839 5.96
11.2282 8.74032 6.05
292.318 1.62441 -3.51
13.5403 8.65682 5.82
291.392 1.56154 -3.56
293.767 2.05263 4.23
266.969 10.4295 -5.4
261.063 10.4217 -5.82
25.9673 0.15709 -2.79
257.525 10.2948 -6.01
272.771 1.90292 2.65
3.41283 8.97977 -0.389999
9.06629 8.66443 6.11
9.50838 0.456834 5.98
18.5683 8.77492 5.42
9.10659 0.0617611 -1.07
254.771 1.79204 1.61
17.1802 9.14879 -1.89
249.934 1.77884 1.26
249.133 1.81505 1.33
246.414 1.83342 1.16
23.2957 9.21178 -2.44
23.7112 9.18949 -2.49
218.924 9.70535 0.470001
28.3876 9.09316 -3.02
219.486 1.11172 -8.37
217.785 1.29289 -8.46
30.9589 9.24169 -3.24
24.6343 0.0291031 -2.71
27.0059 0.0426132 -3.12
29.1782 0.156131 -3.14
29.5906 0.122552 -3.12
39.0892 9.08495 -4.06
32.3983 0.0715303 -3.47
34.3266 0.240741 -3.58
34.6953 0.16661 -3.62
199.04 1.42144 -0.649998
181.123 9.89103 -9.01
37.7813 0.0665765 -4.03
176.624 9.92583 -9.1
181.826 0.986642 -9.33
179.955 0.906908 -9.32
168.926 10.003 -9.21
178.08 0.929632 -9.36
43.0079 0.315931 -4.47
158.267 9.81296 -9.2
167.751 1.22754 -1.1
166.556 1.24756 -1.06
165.969 1.23644 -1.04
53.4226 9.18981 -5.21
154.062 1.10952 -1.02
59.5922 9.33099 -5.71
139.577 9.32215 -0.16
66.5072 9.23651 -6.07
135.113 0.617951 -9.05
116.251 9.54073 -8.44
124.989 1.0697 -0.599998
117.655 9.22332 0.190002
112.015 9.58758 -8.32
111.031 9.54898 -8.25
82.2295 0.339342 -7.32
82.5622 0.486028 -7.28
82.3857 9.53203 -7.2
112.574 0.516372 -8.48
106.75 0.919578 -0.130001
101.591 0.444797 -8.33
77.5311 9.33734 -6.67
77.0575 9.3839 -6.69
76.6616 9.36019 -6.58
72.1434 9.09222 1.8
67.2711 9.41736 -6.06
61.7376 9.46417 -5.68
60.7153 9.40384 -5.53
50.1446 9.4162 -4.87
49.17 9.29396 -4.68
123.145 9.71974 -8.97
125.602 9.57557 -8.96
126.274 9.6565 -9.01
129.468 9.71284 -9.08
130.196 9.64822 -9.15
134.394 0.716441 -9.41
134.721 0.726798 -9.55
133.215 9.77361 -9.19
136.221 0.986884 -1.14
58.5974 9.48602 -5.43
61.2452 9.44299 -5.59
51.4688 0.764634 2.71
141.607 0.993221 -1.19
67.6785 9.48247 -5.92
75.6566 9.12881 1.65
154.928 0.722852 -9.83
77.2766 9.3554 -6.62
160.642 1.20959 -1.32
160.935 1.21327 -1.28
161.607 1.18045 -1.38
164.747 1.1586 -1.29
77.6705 0.974685 0.93
105.847 9.10139 0.549999
101.042 9.66738 -7.81
82.7313 0.394393 -7.18
106.314 9.72979 -8.11
107.202 9.65718 -8.1
110.604 9.76113 -8.24
119.626 9.19429 0.16
184.498 0.916423 -9.57
182.435 9.82623 -9.3
188.054 0.872287 -9.69
118.386 9.75379 -8.48
120.98 9.75008 -8.5
105.241 1.09191 -0.0499992
122.42 9.79565 -8.57
190.417 10.0677 -9.31
123.442 9.73847 -8.62
128.315 9.76587 -8.75
108.567 0.45484 -8.34
139.737 9.89796 -8.91
123.28 1.10701 -0.540001
208.003 9.97333 -8.79
210.997 10.1259 -8.6
211.743 10.1253 -8.59
212.074 10.0332 -8.55
212.35 10.0904 -8.55
216.748 10.0431 -8.39
217.428 10.0404 -8.46
159.693 9.80961 -9.28
219.613 10.199 -8.33
225.041 1.25768 -8.45
225.311 1.29608 -8.36
226.858 10.1262 -8.1
227.147 10.2323 -7.94
312.966 10.673 -1.37
227.904 10.2693 -7.93
239.101 1.31287 -7.7
304.024 10.7108 -2.27
241.834 1.34342 -7.44
280.38 10.134 3.68
182.457 9.90527 -9.03
246.865 1.35529 -7.24
275.558 10.056 3.33
212.507 9.83983 0.25
185.375 9.90063 -9.03
293.856 10.6557 -3.18
218.94 9.87931 0.420002
249.878 10.3251 -6.71
250.195 10.2978 -6.72
290.148 10.6166 -3.49
289.871 10.6732 -3.58
255.692 10.1192 2.1
259.733 1.55553 -6.38
165.192 1.24169 -0.989998
148.465 0.695509 -9.4
267.22 10.4002 -5.5
266.701 10.3987 -5.45
266.958 10.3919 -5.52
272.33 1.59986 -5.37
275.547 1.50397 -5.15
272.825 1.9811 2.5
274.349 10.4934 -4.97
274.653 10.5347 -5
275.213 10.5655 -4.93
279.553 1.67925 -4.84
280.43 10.5459 -4.65
281.234 2.01037 3.09
155.427 0.770377 -9.44
281.875 10.2616 3.56
285.695 1.95384 3.32
287.249 2.06085 3.51
293.03 2.20465 4.14
294.464 1.52633 -3.42
292.376 2.06643 3.87
281.953 2.02939 3.29
293.699 2.04303 4.16
276.474 2.03689 2.93
296.631 2.08732 4.4
176.664 0.97062 -9.25
300.91 1.72849 -2.78
272.826 1.86735 2.64
299.21 2.14844 4.62
300.117 10.5405 -2.65
303.741 1.64651 -2.5
263.86 1.93234 2.09
262.99 1.95518 2.11
262.463 2.04107 1.91
305.145 10.6586 -2.21
305.509 10.5694 -2.18
183.358 1.13213 -9.24
182.754 1.0608 -9.29
292.618 1.77195 -3.56
309.963 10.6078 -1.74
307.604 10.2869 5.57
252.945 1.87413 1.57
310.134 10.2887 5.75
229.473 1.80085 0.420002
291.026 1.52945 -3.63
51.8322 8.71982 2.89
48.8778 9.17654 -4.77
56.4423 9.20146 -5.48
56.9015 9.21972 -5.49
57.2974 9.24344 -5.52
60.0681 9.40947 -5.65
219.064 1.34269 -8.34
218.799 1.32311 -8.36
218.206 1.28942 -8.36
217.946 1.28866 -8.4
66.7111 9.38658 -6.05
66.2454 0.7138 1.59
66.6994 0.713246 1.55
67.6968 0.800769 1.42
75.2045 9.01937 1.48
69.6537 0.722818 1.44
34.4303 0.147034 -3.51
6.11897 9.02998 -0.559998
5.75769 9.13045 -0.66
6.56378 0.132359 -0.759998
91.7265 9.52923 -7.69
85.4809 0.367644 -7.51
85.7904 0.314023 -7.59
91.0126 0.897097 0.200001
11.6188 8.74522 6.02
18.5141 8.69674 5.37
19.1492 8.88097 5.25
21.7407 8.75223 5.13
28.6759 8.84676 4.47
31.1875 8.78077 4.47
104.838 0.340533 -8.5
31.184 0.603835 4.2
29.7652 0.167247 -3.15
111.833 0.418318 -8.79
124.211 9.70312 -9
126.334 9.63975 -8.98
14.0649 9.14344 -1.44
130.504 9.70458 -9.07
131.842 9.61636 -9.18
29.3028 9.1184 -2.96
129.042 0.48176 -9.27
31.4634 0.558587 4.17
32.9805 8.81327 4.32
140.395 9.58119 -9.31
34.7481 0.123521 -3.55
134.795 0.758977 -9.46
30.3532 0.182126 -3.16
140.415 1.02452 -1.24
141.352 1.01128 -1.2
21.0904 8.74657 5.21
18.6293 0.130009 -1.94
18.5796 8.69881 5.53
18.5403 8.79082 5.5
12.3986 0.585611 5.84
7.78636 0.0964474 -0.82
2.23682 0.435588 6.72
1.27395 0.472258 6.9
160.582 1.22634 -1.4
162.016 1.25309 -1.33
8.49498 9.17605 -0.91
163.731 1.12085 -1.4
301.08 1.64061 -2.81
309.977 10.5392 -1.63
309.053 10.6014 -1.91
175.735 9.75965 -9.54
304.036 10.5209 -2.22
171.902 1.11088 -1.26
302.358 10.6674 -2.45
290.304 1.61665 -3.92
293.98 2.00531 4.13
304.595 10.1992 5.31
182.175 9.82548 -9.32
291.894 10.4836 -3.5
276.492 1.52083 -5.06
275.362 1.42164 -5.2
186.865 9.89182 -9.29
191.154 9.57062 -0.59
187.685 9.80961 -9.21
189.056 9.84182 -9.28
181.242 0.755555 -9.56
274.118 1.84857 2.53
196.8 9.57772 -0.43
273.291 1.90443 2.66
200.011 9.57676 -0.32
273.817 10.3292 -5.12
273.456 10.4297 -5.13
259.361 1.50086 -6.43
194.925 1.32105 -0.93
200.365 9.91623 -8.98
191.055 0.933701 -9.46
267.901 10.2837 -5.45
197.652 1.32901 -0.939999
203.133 9.95722 -8.93
207.358 9.98648 -8.81
202.639 1.30034 -0.809998
246.433 1.20362 -7.32
210.269 9.95551 -8.7
211.268 10.0506 -8.69
237.934 1.31698 -7.7
210.671 1.37363 -0.649998
216.913 10.1714 -8.38
211.986 1.43388 -0.540001
217.244 10.0793 -8.42
217.856 10.1807 -8.39
218.215 10.069 -8.38
218.729 10.0517 -8.35
223.465 10.0523 -8.18
223.885 10.0489 -8.14
225.123 1.20246 -8.36
239.628 9.85515 1.24
237.529 9.77381 0.940002
227.726 1.5814 -0.079998
226.603 10.258 -8.09
227.114 10.2294 -8.03
227.959 10.12 -7.96
230.094 10.098 -7.86
228.434 10.1947 -7.93
229.233 10.151 -7.95
