ply
format ascii 1.0
comment Saved by Easy3D (liangliang.nan@gmail.com)
element vertex 1315
property float x
property float y
property float z
end_header
85.8752 9.13328 1.2
135.145 0.734617 -9.48
229.233 10.151 -7.95
243.231 1.23469 -7.52
304.095 10.7317 -2.28
103.676 0.477211 -8.43
300.713 10.5855 -2.56
179.677 9.94039 -9.18
298.128 10.6193 -2.81
83.8543 0.933527 0.799999
300.302 10.274 4.99
265.451 1.8223 2.25
224.6 1.30716 -8.34
244.757 1.3576 -7.29
275.132 10.507 -4.79
148.068 9.2962 -0.709999
291.489 10.1909 4.41
76.6616 9.36019 -6.58
243.765 9.80331 1.25
102.007 9.0582 0.330002
105.847 9.10139 0.549999
279.856 10.4662 -4.44
119.725 0.57111 -9.08
221.762 1.59782 -0.139999
278.424 10.5645 -4.71
240.816 1.41565 -7.26
278.73 10.4996 -4.5
158.047 1.09202 -1.4
170.083 9.3812 -0.790001
305.829 10.5534 -2.1
248.698 1.29955 -7.01
262.856 10.3367 -5.91
272.672 10.5261 -4.94
202.959 0.931818 -9.19
176.158 0.900514 -9.69
123.28 1.10701 -0.540001
246.281 1.70424 0.869999
173.974 9.84382 -9.43
306.18 10.2978 5.57
77.2609 0.318244 -6.8
222.575 10.1212 -8.23
206.012 1.41266 -0.700001
200.9 9.50791 -0.130001
305.754 10.2824 5.45
298.814 10.5216 -2.79
188.774 9.99329 -9.11
74.3037 0.414893 -6.6
171.843 9.41079 -0.599998
92.9687 0.46661 -7.88
26.3166 0.246479 -2.84
114.388 0.624142 -8.79
70.082 0.396918 -6.46
121.641 0.577647 -9.17
274.118 1.49603 -5.05
28.8418 0.229415 -3.12
236.698 1.42148 -7.55
272.011 1.5021 -5.21
241.699 9.83864 1.2
91.0126 0.897097 0.200001
210.269 9.95551 -8.7
141.431 1.17602 -0.91
193.343 10.0931 -8.81
252.945 1.87413 1.57
193.041 10.0556 -8.81
252.177 10.3102 -6.39
124.455 1.133 -0.739998
160.582 1.22634 -1.4
202.321 1.08883 -9.1
174.758 9.51237 -0.689999
32.1843 0.585136 4
235.065 10.1267 -7.58
122.592 0.499579 -9.13
197.572 10.0199 -9.01
254.407 10.3956 -6.47
175.105 9.47672 -0.809998
157.856 9.50153 -0.43
57.2455 9.29029 -5.37
255.065 10.3139 -6.41
113.998 9.25117 0.240002
196.614 10.0754 -8.78
196.347 10.0483 -8.8
39.857 9.16334 -4.04
40.517 8.8541 3.69
157.574 9.42174 -0.399998
246.095 1.26938 -7.22
237.45 10.1891 -7.44
42.2233 9.15803 -4.19
188.147 0.972208 -9.49
282.182 10.5492 -4.23
281.353 10.6013 -4.23
261.441 1.4007 -6.02
87.624 0.375786 -7.59
201.451 10.2061 -8.73
221.218 10.1379 -8.31
163.225 1.28201 -1.09
257.587 10.4031 -6.16
5.56507 -0.0764393 -0.68
260.963 1.8985 1.95
45.9018 9.20544 -4.53
180.487 9.93429 -9.31
114.601 0.573059 -8.65
108.643 9.00897 0.139999
205.523 10.1522 -8.51
27.5538 8.77768 4.74
117.157 9.18332 0.200001
259.961 1.79216 1.71
200.002 1.381 -0.970001
258.294 10.0281 2.04
270.837 10.5781 -5.15
232.26 10.3065 -7.88
12.4814 -0.0496502 -1.39
181.226 1.27914 -1.19
111.241 9.60412 -8.35
14.3014 -0.0368118 -1.62
123.12 9.16314 -0.189999
241.381 1.69651 0.799999
240.64 1.71596 0.84
270.524 10.3854 -5.26
289.705 1.67789 -3.72
239.075 1.68507 0.690002
130.025 1.10039 -1.09
44.7615 8.83736 3.52
262.177 10.1119 2.24
151.079 0.880824 -9.39
161.616 9.49372 -0.389999
124.85 9.20109 -0.329998
229.124 1.24517 -7.86
130.333 0.576723 -9.34
265.067 10.4719 -5.51
212.957 10.0593 -8.29
40.9657 8.83473 3.82
315.466 10.6831 -1.11
14.604 0.118248 -1.6
129.468 9.71284 -9.08
283.97 1.58216 -4.34
267.699 10.3724 -5.62
287.175 1.56238 -3.98
216.568 10.2146 -8.22
126.38 0.589613 -9.21
209.153 10.0265 -8.42
41.4851 9.30253 -3.94
47.5561 8.97243 3.32
170.324 1.3836 -1
169.754 1.31518 -1.06
124.388 9.28905 -0.0299988
130.892 0.952512 -1.05
76.1651 0.343244 -6.93
126.77 0.594515 -9.26
204.999 10.0181 -8.58
209.991 9.77326 0.260002
175.329 10.0508 -9.08
304.768 1.60815 -2.33
208.506 9.80088 0.200001
90.627 9.30792 -7.67
182.175 9.82548 -9.32
54.1234 9.02735 2.81
184.224 9.49491 -0.529999
225.868 10.2963 -7.78
56.3296 8.91252 2.66
160.475 0.842471 -9.76
213.025 10.0688 -8.59
132.258 9.24906 -0.470001
137.749 0.768549 -9.51
282.909 1.61761 -4.36
263.259 1.75479 1.87
128.416 9.3121 -0.139999
45.053 0.671621 3.17
91.8194 0.765961 0.240002
260.378 10.2918 -6.14
137.145 9.56041 -9.32
271.483 10.0986 2.83
87.2113 0.758138 0.470001
134.95 9.24659 -0.48
272.114 10.0366 2.83
202 1.44983 -0.579998
165.409 9.48506 -0.389999
104.838 0.340533 -8.5
247.05 10.3008 -6.74
63.7613 9.04329 2.28
239.101 1.31287 -7.7
246.503 10.319 -6.82
191.105 1.11435 -9.25
140.001 9.68251 -9.32
106.353 1.12336 -0.220001
284.523 10.2185 3.97
132.701 9.32462 -0.149998
176.624 9.92583 -9.1
251.649 9.926 1.69
184.55 0.987082 -9.28
285.957 1.96212 3.44
299.983 1.66185 -2.89
143.592 0.66811 -9.57
78.334 8.84238 1.37
171.271 9.92241 -9.47
282.972 10.4753 -4.3
193.697 0.985604 -9.37
183.257 9.98281 -9.32
226.842 1.66907 -0.0200005
140.358 9.33195 -0.439999
172.81 0.992263 -9.41
196.518 0.865995 -9.32
176.315 1.34752 -1.15
234.988 9.73442 0.920002
174.557 1.32546 -0.93
173.86 1.38547 -1.04
178.774 1.21087 -1.35
85.7697 9.33697 -7.37
237.053 10.2791 -7.29
120.106 9.17407 -0.299999
167.099 0.983096 -9.46
60.8764 8.93333 2.34
109.424 1.08815 -0.220001
145.115 1.1285 -1.25
155.802 9.81328 -9.17
167.631 9.5442 -0.48
297.842 1.54372 -3.11
146.625 9.82313 -9.39
154.579 9.96671 -9.17
145.837 1.0413 -1.23
138.722 9.63271 -9.52
162.495 0.872814 -9.36
176.809 1.37622 -0.809998
172.485 9.85263 -9.38
153.681 9.77042 -9.21
160.964 1.31865 -1.03
149.294 9.74162 -9.3
284.032 10.5536 -4.13
296.975 1.57786 -3.26
89.8982 9.02 0.760002
109.534 0.550736 -8.7
170 9.55018 -0.439999
152.76 0.859412 -9.42
53.9045 0.65894 2.34
156.218 1.16282 -1.18
118.457 9.53965 -8.73
258.825 10.3061 -6.19
181.916 1.42781 -0.93
224.694 9.69024 0.540001
129.094 9.65064 -8.89
201.536 9.69591 -0.0400009
260.832 1.77684 1.72
307.814 10.6946 -1.94
61.0505 0.228575 -5.79
61.6043 0.820571 2
137.809 9.72875 -8.96
192.862 9.64706 -0.259998
212.958 1.43108 -0.489998
295.489 1.48044 -3.29
270.572 1.80906 2.36
145.413 1.03349 -1.27
56.4567 0.622213 2.16
59.9122 8.84872 2.41
237.643 1.55209 0.440002
123.498 9.12288 -0.34
144.828 1.14741 -0.98
132.128 9.59746 -8.83
111.515 0.559344 -8.75
154.347 9.83254 -9.43
151.508 9.30437 -0.689999
82.9188 9.11618 1.33
165.776 0.892743 -9.61
84.61 9.1324 1.18
290.186 10.6384 -3.61
156.292 1.195 -1.32
304.774 10.6077 -2.23
310.587 10.4019 5.71
133.26 0.719707 -9.18
85.4679 9.06816 1.17
124.818 9.55448 -8.68
114.896 1.05055 -0.360001
157.333 1.09182 -1.26
128.222 9.31342 -0.0699997
289.041 10.4865 -3.79
70.8776 0.808183 1.35
155.695 9.3119 -0.66
68.7947 0.783295 1.57
235.53 1.1868 -7.86
158.178 1.09616 -1.4
243.34 1.27731 -7.35
62.1125 0.431918 -5.78
71.307 9.00047 1.72
118.801 9.61022 -8.53
170.674 0.892953 -9.46
116.278 1.12416 -0.369999
295.971 1.69902 -3.26
106.006 0.575209 -8.18
293.699 2.04303 4.16
141.514 9.75649 -9.39
124.989 1.0697 -0.599998
117.655 9.22332 0.190002
42.2642 9.30481 -4.08
291.227 10.1827 4.15
203.431 0.999006 -9.21
117.314 1.1159 -0.450001
304.874 10.7339 -2.12
95.8037 9.02786 0.490002
291.745 10.1804 4.33
78.1641 9.04776 1.42
240.429 1.30829 -7.51
108.563 9.538 -8.1
180.53 9.39105 -0.57
119.906 0.87341 -0.689999
147.201 0.815908 -9.7
108.108 9.18602 0.380001
249.6 1.39337 -6.95
293.585 10.1472 4.42
3.97311 8.66177 6.82
4.30426 0.0552502 -0.329998
76.2118 0.861372 1.23
202.76 10.0163 -8.88
124.681 9.64527 -8.91
161.718 9.85877 -9.29
109.573 1.03876 -0.299999
265.11 10.395 -5.69
300.574 1.68802 -2.81
300.91 1.72849 -2.78
77.6705 0.974685 0.93
92.0836 0.433 -7.84
109.151 0.68969 -8.44
69.0579 8.96099 1.82
92.4197 9.6892 -7.52
213.592 1.49404 -0.459999
92.4885 0.839364 0.279999
93.2069 9.60407 -7.46
89.196 9.52748 -7.33
92.8857 9.49878 -7.51
191.154 9.57062 -0.59
201.391 9.64284 -0.16
171.887 0.82317 -9.73
100.996 9.15302 0.57
164.22 9.99394 -9.3
298.397 10.3051 4.7
177.401 9.80307 -9.55
96.41 0.827319 0.110001
93.1268 0.568602 -7.7
172.876 0.880585 -9.66
181.814 9.45967 -0.59
137.528 0.789525 -9.18
156.825 1.1317 -1.35
88.8704 0.30892 -7.83
280.38 10.134 3.68
205.689 9.70052 0.0400009
301.472 10.2812 5.06
239.518 9.92628 1.08
283.988 10.5131 -4.01
304.023 1.60879 -2.42
301.369 1.74675 -2.67
186.726 0.880629 -9.61
227.114 10.2294 -8.03
292.318 1.62441 -3.51
268.816 10.4227 -5.36
246.265 9.92719 1.36
92.4629 0.514017 -7.94
262.157 10.3891 -5.68
273.11 1.48838 -5.09
255.459 10.3301 -6.27
248.508 9.94784 1.37
252.077 1.66947 1.21
265.439 1.31462 -5.79
37.6776 0.160283 -3.97
252.108 9.94426 1.62
196.054 10.0446 -8.87
255.712 1.67633 1.38
282.713 10.4746 -4.11
6.56584 9.12059 -0.720001
107.194 9.04704 0.209999
200.615 10.1181 -8.75
200.017 10.0656 -8.77
202.29 9.60786 -0.169998
271.461 10.3721 -5.17
205.256 10.1251 -8.5
254.771 1.79204 1.61
105.569 9.38542 -8.27
243.358 9.85571 1.27
230.446 10.3125 -7.56
249.934 1.77884 1.26
235.987 9.94322 1.1
234.421 9.91232 1.06
264.98 1.88015 2.04
262.578 10.3857 -5.9
230.991 9.94179 0.959999
231.233 9.76105 0.880001
237.934 1.31698 -7.7
261.142 10.0064 2.04
210.223 10.1425 -8.43
239.881 1.66768 0.779999
234.902 1.60895 0.470001
213.705 10.0661 -8.34
218.924 9.70535 0.470001
212.098 10.1197 -8.3
264.771 9.99066 2.3
211.317 10.1099 -8.35
216.303 10.195 -8.24
160.092 0.863913 -9.63
203.55 10.0562 -8.63
218.934 1.57734 -0.149998
212.835 1.10451 -8.54
211.809 1.26415 -8.64
212.058 1.10976 -8.59
227.548 10.3886 -7.76
197.12 10.028 -8.83
196.333 10.1131 -8.8
195.088 9.95251 -8.83
192.893 9.99122 -8.9
218.892 9.70619 0.200001
196.392 9.74386 -0.0599976
171.631 1.29999 -1.08
154.922 0.935296 -9.28
302.123 1.6587 -2.69
193.007 9.70013 -0.239998
154.015 0.822655 -9.51
221.707 10.1478 -8.19
108.767 0.824882 -0.509998
185.533 10.0026 -9.06
201.056 1.55424 -0.68
201.308 1.41114 -0.579998
37.8412 8.91302 3.98
178.447 9.94996 -9.15
244.847 10.3132 -6.87
244.008 10.3277 -6.94
106.457 0.563365 -8.45
179.153 1.05686 -9.34
183.511 1.45033 -0.809998
173.157 9.47103 -0.389999
165.873 9.98842 -9.21
179.498 1.47997 -0.889999
171.682 9.8813 -9.47
161.778 9.84202 -9.15
160.518 9.85997 -9.27
160.114 9.80614 -9.17
283.571 1.54715 -4.44
283.943 1.48431 -4.37
159.146 9.47522 -0.43
173.904 1.31227 -0.959999
191.671 1.05019 -9.46
156.181 9.42801 -0.529999
283.374 2.00722 3.19
215.64 10.1404 -8.46
281.266 10.1714 3.43
155.195 0.867467 -9.46
154.78 0.776007 -9.29
110.307 0.530431 -8.71
149.344 0.82405 -9.4
144.184 9.32621 -0.419998
289.834 1.6745 -3.75
136.91 9.64621 -8.91
143.401 0.680713 -9.34
295.349 1.67746 -3.27
129.491 9.67812 -8.91
132.449 9.23646 -0.25
131.293 9.39196 -0.130001
125.727 9.67465 -8.73
179.081 9.42912 -0.559998
73.5351 0.450251 -6.85
294.464 1.52633 -3.42
122.296 9.58283 -8.67
126.766 9.21139 -0.189999
117.688 9.57501 -8.51
293.053 1.58614 -3.67
118.143 9.22944 0.16
112.488 9.53725 -8.3
77.8929 9.00561 1.41
105.97 9.65922 -8.09
112.893 0.614134 -8.6
292.067 1.54001 -3.6
112.983 1.0553 -0.279999
203.634 1.49409 -0.559998
101.45 9.61875 -7.92
176.975 1.03827 -9.31
87.4454 9.41426 -7.45
88.6586 9.34447 -7.54
301.246 1.6552 -2.73
90.6987 0.818152 0.330002
100.508 0.632471 -8.05
95.2251 0.532428 -8.01
96.294 0.527091 -7.86
298.739 10.2507 4.81
89.5387 0.496071 -7.58
92.0045 0.84829 0.260002
299.383 10.3513 4.85
300.05 10.1859 4.88
303.363 10.6675 -2.48
302.105 10.2267 5.17
292.859 1.70496 -3.43
292.618 1.77195 -3.56
307.604 10.2869 5.57
308.306 10.2457 5.54
69.6309 0.757535 1.57
183.667 9.47542 -0.5
68.2649 0.744143 1.68
112.875 9.18209 0.0299988
66.9478 0.79012 1.81
315.095 10.6322 -1.07
209.024 9.67736 -0.0400009
132.412 9.68478 -9.07
54.0344 9.17374 -5
120.812 9.61046 -8.86
231.885 9.77424 0.690002
121.221 0.933655 -0.860001
56.7292 0.785645 2.29
49.6991 8.98058 3.19
284.609 1.43267 -4.43
289.992 1.65898 -3.74
248.435 9.91567 1.64
286.355 1.6446 -4.01
131.982 1.02244 -0.989998
130.463 9.20903 -0.470001
287.991 1.92764 3.72
136.326 0.66568 -9.4
57.3291 9.00757 2.71
44.6773 0.83692 3.22
59.4365 8.88775 2.61
136.973 9.64076 -9.18
133.04 0.979471 -1.11
58.6739 8.82818 2.44
206.324 10.116 -8.75
143.89 0.804352 -9.48
146.006 0.714644 -9.66
143.066 1.10653 -1.21
273.905 1.54711 -5.08
273.615 1.55473 -5.06
226.733 1.16016 -8.25
204.567 1.23453 -8.84
279.742 1.5416 -4.84
206.668 10.0728 -8.79
55.1915 0.621336 2.27
268.054 1.5037 -5.51
139.752 9.71938 -9.25
289.975 10.5795 -3.71
154.928 0.722852 -9.83
152.705 9.87568 -9.27
247.797 1.20948 -7.11
57.9929 0.547734 2.08
80.3414 9.52887 -6.79
223.465 10.0523 -8.18
162.396 0.867825 -9.68
90.0511 9.10318 1.02
85.5997 9.54236 -7.13
165.066 9.88453 -9.41
76.9951 0.878702 1.22
68.6705 8.96738 1.91
226.197 1.21594 -8.33
167.287 9.82616 -9.48
165.087 9.37977 -0.689999
165.398 9.44742 -0.689999
58.4176 0.441804 -5.85
73.024 0.478841 -6.52
257.693 10.4344 -6.24
171.006 9.90283 -9.51
96.5662 9.55372 -7.76
63.5984 0.64308 1.77
67.4494 9.24208 -6.22
172.244 9.45332 -0.75
106.314 9.72979 -8.11
119.626 9.19429 0.16
225.544 1.08524 -8.31
146.273 9.72245 -9.39
183.182 1.31494 -1.2
214.162 1.56245 -0.489998
114.274 9.54717 -8.44
227.823 1.23009 -7.96
138.291 0.617837 -9.53
116.871 9.66851 -8.45
236.328 1.60559 0.48
199.471 1.10306 -9.24
35.8911 9.24858 -3.64
122.142 9.72715 -8.63
223.885 10.0489 -8.14
244.745 1.31244 -7.29
123.442 9.73847 -8.62
191.081 9.89098 -9.18
139.728 0.652118 -9.64
189.165 9.53191 -0.509998
191.719 1.45457 -1.01
180.799 0.793743 -9.62
72.181 0.713281 1.24
131.08 9.79558 -8.86
197.563 9.98983 -9.02
132.881 9.85442 -8.77
131.986 9.66943 -8.93
198.053 1.37155 -0.869999
145.835 9.43069 -0.380001
149.039 9.52466 -0.439999
139.459 9.83322 -8.96
204.598 9.9756 -8.91
204.402 1.45496 -0.799999
141.02 9.8453 -9.01
208.935 1.07807 -9.08
241.314 10.2051 -7.43
209.197 1.08636 -8.92
206.32 1.47279 -0.73
21.9493 0.171673 -2.43
148.865 1.08306 -1.17
144.527 0.647339 -9.7
145.586 9.8201 -9.13
211.569 1.10363 -8.92
79.3112 0.692751 0.830002
79.8756 0.856096 0.740002
213.806 1.21546 -8.86
150.192 1.18846 -1.22
118.399 0.700728 -8.76
84.7725 9.36696 -7.36
214.312 10.1488 -8.45
196.8 9.57772 -0.43
214.664 10.1319 -8.45
218.237 1.1673 -8.63
252.565 10.19 -6.56
216.371 1.57267 -0.470001
156.285 9.9181 -9.2
122.47 0.760568 -8.84
172.405 9.56661 -0.43
158.629 9.95128 -9.09
158.047 9.84147 -9.12
197.24 9.52824 -0.27
162.581 9.93086 -9.03
87.9978 9.30118 -7.65
221.141 10.0944 -8.31
125.926 0.590167 -8.88
156.2 9.73078 -9.47
88.669 9.38211 -7.47
246.447 1.71883 0.880001
182.081 9.60428 -0.32
223.439 10.1933 -8.11
128.546 0.680551 -9.07
184.89 9.67453 -0.329998
167.385 9.82739 -9.2
94.0741 8.9899 0.709999
300.093 10.3402 4.95
83.4751 0.386225 -7.41
95.4288 9.07941 0.580002
198.631 9.51444 -0.23
277.392 10.4703 -4.73
234.048 1.33947 -7.85
231.566 10.1428 -7.76
234.427 1.30297 -7.94
293.388 10.2548 4.53
194.902 9.98393 -8.96
234.866 1.5985 0.310001
151.293 0.715992 -9.68
91.3466 0.698773 0.240002
236.883 1.61756 0.450001
285.034 10.1899 3.95
284.782 10.2193 3.93
180.513 10.0284 -9.06
315.133 10.7677 -1.07
0.306949 0.0275891 0.100002
311.783 10.6206 -1.43
303.287 10.6278 -2.2
307.197 10.3393 5.59
298.401 10.5514 -2.65
303.778 10.2927 5.34
292.82 10.5464 -3.26
5.37309 0.516198 6.59
10.7428 0.113546 -1.23
280.903 10.4994 -4.27
279.604 10.6093 -4.42
299.487 1.51187 -2.88
298.025 1.61853 -2.98
295.329 1.72346 -3.25
282.979 10.1492 3.76
273.809 10.4166 -4.93
291.392 1.56154 -3.56
295.868 2.14526 4.42
278.003 10.1017 3.43
286.82 1.56793 -4.1
266.969 10.4295 -5.4
281.351 1.61305 -4.48
270.001 10.1376 2.95
260.175 10.3768 -5.86
257.259 10.3889 -6.17
272.277 1.40792 -5.09
254.414 10.422 -6.32
252.906 10.3668 -6.35
251.152 10.356 -6.49
250.384 10.2777 -6.47
246.749 10.2708 -6.66
38.5857 9.25739 -3.86
5.8344 9.05641 -0.66
0.118734 -0.0660301 -0.0200005
251.531 9.97078 1.8
256.56 1.46071 -6.35
243.751 9.86814 1.51
12.203 0.465647 5.78
253.741 1.81911 1.43
10.1595 -0.11754 -1.07
252.882 1.76584 1.41
229.892 10.1868 -7.59
236.201 9.77839 1.08
249.133 1.81505 1.33
226.599 10.1254 -7.88
231.849 9.87755 0.920002
224.849 10.2472 -7.81
224.229 10.1194 -7.89
220.633 10.1343 -8.1
219.904 10.0777 -8.15
231.451 1.33188 -7.73
215.025 10.2627 -8.27
30.2212 8.68864 4.26
20.1686 0.0668201 -2.31
22.213 0.0699731 -2.45
207.444 10.1776 -8.56
225.061 1.56421 0.209999
206.283 10.0868 -8.5
33.6452 8.75411 4.1
222.027 1.61739 0.0800018
221.265 1.56158 -0.0599976
209.384 9.69063 0.200001
202.797 10.0305 -8.75
219.719 1.59843 -0.0499992
202.115 10.0295 -8.71
201.345 10.0573 -8.7
199.205 10.0604 -8.8
27.0059 0.0426132 -3.12
197.892 10.004 -8.77
202.773 9.71268 0.0200005
195.762 10.0447 -8.72
194.264 10.0234 -8.9
39.0892 9.08495 -4.06
202.691 1.48475 -0.559998
194.233 1.51362 -0.73
180.69 9.61808 -0.200001
174.268 9.50248 -0.48
177.835 1.09907 -9.43
178.08 0.929632 -9.36
180.758 1.46203 -1.07
169.209 0.874571 -9.46
173.317 1.29739 -1.12
42.3658 8.73729 3.52
42.7171 8.8342 3.51
163.661 0.868702 -9.41
153.604 9.8407 -9.21
162.956 0.898604 -9.55
149.551 9.84861 -9.11
147.932 9.73952 -9.09
159.871 1.23743 -1.07
146.141 9.83206 -9.13
53.8132 9.19472 -5.24
145.021 9.7705 -9.08
149.256 9.37112 -0.470001
143.777 9.84489 -9.13
147.624 9.33438 -0.470001
56.617 9.24615 -5.34
139.962 9.77452 -9.04
138.301 9.74993 -9.05
149.178 1.27575 -1.08
139.577 9.32215 -0.16
61.4056 0.689318 1.93
144.109 1.24214 -1.04
131.579 9.60431 -8.91
136.092 9.38718 -0.23
134.636 9.28515 -0.329998
135.113 0.617951 -9.05
71.5248 0.336267 -6.65
125.17 9.76891 -8.61
69.9623 0.782946 1.52
134.885 1.20014 -0.82
134.462 1.07858 -0.779999
71.018 8.89433 1.73
131.3 1.1389 -0.82
126.01 0.65998 -8.91
76.9816 0.363492 -6.94
72.3539 8.9161 1.59
74.2149 0.6788 1.28
116.251 9.54073 -8.44
78.1958 0.297473 -7.08
115.696 9.64251 -8.5
75.5186 0.701411 1.1
78.5908 0.43494 -7.06
121.235 0.751319 -8.86
115.793 9.2912 0.190002
78.0483 0.816913 0.920002
76.746 8.96371 1.44
109.518 9.47123 -8.21
81.2574 9.44036 -7.12
113.683 0.654045 -8.68
116.443 1.01747 -0.459999
85.8385 0.48714 -7.57
114.997 1.06683 -0.43
109.089 0.581397 -8.38
108.583 0.628804 -8.35
86.5956 9.39109 -7.35
83.9272 9.01008 1.13
86.3555 0.829905 0.48
107.145 0.59076 -8.35
99.1373 9.58473 -7.86
98.2802 9.53522 -7.77
99.7741 9.07518 0.740002
93.5444 0.55384 -7.91
104.413 1.03026 -0.0400009
92.9294 9.53933 -7.49
94.4937 0.468245 -7.93
92.0917 0.811881 0.279999
90.1204 9.46908 -7.43
94.9602 9.49356 -7.81
88.4334 9.46791 -7.26
98.9065 0.473618 -8.25
97.4605 9.50368 -7.95
98.5255 9.60081 -7.98
92.9258 0.778595 0.32
88.3533 0.432442 -7.47
78.2491 9.47011 -6.67
105.312 0.528997 -8.51
106.107 0.473976 -8.45
102.292 9.03177 0.240002
102.507 9.10573 0.389999
81.4174 0.45166 -7.11
109.499 0.540291 -8.72
108.739 9.46895 -8.41
111.201 0.594148 -8.77
107.303 9.08966 0.190002
76.9244 0.857814 1.05
74.4437 0.801681 1.21
112.947 9.55551 -8.64
67.7178 0.409752 -6.21
59.6849 9.43091 -5.49
117.164 0.691479 -8.97
67.2886 0.849401 1.61
55.896 9.2196 -5.23
61.1701 0.308832 -5.74
58.6003 8.91351 2.57
119.674 9.60243 -8.82
120.036 9.61947 -8.82
56.6599 8.93417 2.66
117.668 9.15473 -0.189999
51.3172 9.31716 -4.84
119.842 0.992614 -0.739998
118.349 9.15202 -0.119999
57.9984 0.684063 2.35
127.139 0.637897 -9.33
127.871 0.588331 -9.21
46.8576 8.79366 3.26
126.274 9.6565 -9.01
129.554 0.691959 -9.23
128.196 1.05745 -0.869999
42.471 8.88237 3.62
43.6138 8.90921 3.53
48.1056 8.96558 3.25
49.6698 8.8752 3.15
50.9725 8.89405 3.07
132.295 1.10139 -0.970001
55.2462 8.98268 2.81
133.487 1.07009 -1.05
137.096 0.751598 -9.52
131.895 9.2245 -0.419998
134.234 1.07321 -1.17
137.472 0.586299 -9.55
58.8103 8.96865 2.63
134.892 0.991463 -1.03
44.3674 0.655516 3.23
135.258 1.02355 -1.14
137.484 9.61217 -9.32
137.126 9.25765 -0.5
44.8332 0.347587 -4.34
68.2406 9.05449 2.09
142.712 1.1196 -1.1
144.628 9.64056 -9.46
69.7001 9.05406 1.93
144.066 1.08783 -1.23
145.22 9.78801 -9.37
148.34 0.710183 -9.62
56.5598 0.759768 2.36
150.298 9.73422 -9.34
60.8284 0.829585 2.03
150.878 1.09082 -1.28
152.427 9.69343 -9.41
54.7897 0.226263 -5.27
80.4422 9.0751 1.5
150.642 9.3385 -0.689999
153.573 1.09963 -1.25
154.253 1.09692 -1.32
83.572 9.01562 1.32
66.5127 0.858415 1.75
59.5632 0.362423 -5.64
153.549 9.29623 -0.59
159.541 0.749493 -9.64
79.0717 9.39543 -6.78
81.4613 9.59043 -6.74
69.7817 0.833183 1.61
164.225 0.797022 -9.8
73.8777 0.865833 1.41
163.517 9.79634 -9.51
74.6869 0.859737 1.3
75.3642 0.845734 1.16
161.529 9.41261 -0.619999
167.279 0.932859 -9.74
79.0094 0.890228 1.02
72.4528 0.524177 -6.43
165.745 9.41177 -0.66
102.222 9.24591 0.529999
101.925 9.11343 0.610001
94.8033 9.51284 -7.61
95.5772 9.4963 -7.71
168.18 9.41983 -0.709999
168.473 9.4235 -0.559998
174.044 1.22901 -1.38
175.721 9.94199 -9.36
173.324 9.37187 -0.619999
113.063 9.27194 0.32
180.517 0.945213 -9.58
178.434 9.90103 -9.35
181.558 0.955776 -9.6
108.242 9.66774 -8.13
176.414 9.4044 -0.529999
180.171 1.21965 -1.13
180.556 1.31949 -1.22
180.95 1.33568 -1.24
119.887 9.31633 0.0699997
111.525 9.69143 -8.3
180.604 9.42323 -0.540001
183.606 1.32276 -1.2
184.637 9.93138 -9.31
184.971 9.96432 -9.28
115.881 9.72484 -8.43
92.9815 0.629283 -7.63
126.983 9.29288 -0.0900002
187.708 10.0099 -9.23
186.329 9.48132 -0.5
192.172 0.983969 -9.49
123.751 9.7986 -8.53
123.162 9.66245 -8.69
190.891 1.39293 -1.13
98.9742 0.600728 -7.93
126.016 9.78078 -8.65
125.702 9.70183 -8.71
125.392 9.63418 -8.78
192.107 1.33443 -0.970001
193.161 10.0221 -9.12
136.633 9.35021 -0.279999
100.47 0.496988 -8.07
128.315 9.76587 -8.75
102.98 0.658497 -8.03
113.579 0.982776 -0.259998
142.778 9.40483 -0.32
115.188 1.16797 -0.41
144.315 9.44787 -0.41
133.977 9.82942 -8.9
198.657 1.44288 -0.790001
146.112 9.49542 -0.369999
108.138 0.659465 -8.34
203.673 10.1478 -8.9
206.448 0.999359 -9.06
204.658 1.44443 -0.66
112.668 0.737568 -8.58
124.733 1.2015 -0.689999
113.999 0.740516 -8.48
113.718 0.664489 -8.56
159.531 9.4613 -0.41
147.138 9.80207 -9.14
127.008 1.10004 -0.739998
212.074 10.0332 -8.55
131.281 1.18491 -0.759998
130.995 1.09007 -0.75
217.887 1.07791 -8.6
167.926 9.5554 -0.360001
215.026 1.52079 -0.439999
132.645 1.19078 -0.84
216.046 1.56983 -0.419998
169.713 9.45157 -0.34
216.636 1.47849 -0.34
214.222 9.70759 0.209999
158.334 9.94007 -9.22
214.978 9.74458 0.170002
123.239 0.611461 -8.98
159.961 9.84048 -9.19
159.693 9.80961 -9.28
162.286 9.91966 -9.14
162.013 9.86997 -9.18
217.989 9.72612 0.260002
179.308 9.54447 -0.439999
221.412 1.62218 -0.189999
225.041 1.25768 -8.45
225.311 1.29608 -8.36
225.631 1.28009 -8.3
303.389 10.2953 5.27
184.614 9.61356 -0.309998
227.889 1.11841 -8.14
314.93 10.7389 -1.06
299.837 10.3507 5
229.667 1.21574 -8.14
144.459 1.21778 -1
230.447 1.21801 -8.07
227.904 10.2693 -7.93
296.867 10.2847 4.79
229.593 10.278 -7.88
226.89 9.77281 0.560001
230.621 10.1259 -7.84
309.927 10.7111 -1.63
293.653 10.2743 4.39
194.342 9.72189 -0.0900002
194.069 9.67221 -0.0900002
175.9 10.1193 -8.98
174.147 9.88099 -9.18
236.338 1.29069 -7.72
234.097 10.262 -7.7
197.808 9.70288 -0.0699997
238.749 1.21219 -7.62
235.943 1.61951 0.369999
237.097 10.3197 -7.48
240.038 1.29962 -7.56
202.366 9.76508 0.0499992
180.781 10.0592 -9.02
238.676 1.65006 0.52
239.319 10.2613 -7.41
151.608 1.26499 -1.04
240.685 10.2747 -7.28
241.627 1.64834 0.66
242.568 10.2821 -7.18
247.13 1.37487 -7.1
245.755 10.1946 -7.02
185.375 9.90063 -9.03
218.94 9.87931 0.420002
218.392 9.77242 0.59
190.211 10.1451 -8.93
251.565 1.34553 -6.91
142.845 0.896248 -9.2
249.29 10.3102 -6.8
142.296 0.789355 -9.34
249.878 10.3251 -6.71
289.871 10.6732 -3.58
258.978 10.0367 2.25
225.534 9.79705 0.66
249.878 9.97253 1.65
197.753 10.2047 -8.73
197.155 10.156 -8.78
161.08 1.26634 -1.12
255.732 10.3798 -6.38
145.401 0.757063 -9.35
201.716 10.2257 -8.7
200.907 10.1181 -8.67
163.795 1.35042 -0.98
163.498 1.33169 -1.08
162.946 1.21351 -1.06
276.617 10.6006 -4.68
259.716 10.3585 -6.07
260.258 1.81089 1.71
258.002 10.0282 1.94
260.987 10.382 -6.08
261.249 10.3903 -5.95
259.612 9.98593 2.16
259.942 10.0076 2.25
211.018 10.2012 -8.36
210.778 10.1544 -8.32
260.677 10.083 2.18
265.583 10.4621 -5.5
266.663 10.3807 -5.61
264.033 10.0214 2.41
264.271 10.5269 -5.6
215.443 10.1342 -8.26
170.024 1.35358 -1.03
259.099 10.3558 -5.95
269.322 1.86464 2.3
258.298 10.392 -6
254.728 10.5009 -6.22
228.095 10.3742 -7.64
222.188 10.1276 -7.93
172.206 1.38722 -1.07
171.931 1.33001 -1.05
248.993 10.2915 -6.66
275.825 10.4357 -4.85
246.242 10.3107 -6.8
276.758 10.4074 -4.83
281.98 1.54345 -4.54
279.727 10.5871 -4.6
237.876 10.322 -7.33
235.359 10.2516 -7.39
234.283 10.2306 -7.44
174.43 1.45388 -1.08
155.427 0.770377 -9.44
285.695 1.95384 3.32
182.194 1.49631 -1
289.254 1.68973 -3.94
184.736 1.42195 -0.950001
287.342 10.5577 -3.91
163.626 0.858257 -9.45
288.118 10.4349 -3.95
288.964 10.5605 -3.75
191.689 1.46294 -0.720001
285.735 2.09685 3.65
196.523 1.58236 -0.529999
291.691 10.686 -3.46
171.5 1.06458 -9.48
292.058 10.6044 -3.53
170.949 0.950163 -9.44
296.33 1.70476 -3.23
200.258 1.60173 -0.630001
293.983 10.5273 -3.26
297.278 1.6154 -3.23
294.545 10.5656 -3.2
303.26 1.66673 -2.48
298.186 1.6143 -3.16
298.937 1.63247 -3.07
296.386 10.5399 -3.13
178.869 0.969543 -9.49
299.019 10.3267 4.91
301.797 10.284 5.07
304.829 10.5721 -2.14
302.442 10.2709 5.16
305.509 10.5694 -2.18
183.358 1.13213 -9.24
293.43 1.65963 -3.46
310.272 10.6679 -1.65
311.151 10.7965 -1.56
251.05 1.94286 1.38
310.134 10.2887 5.75
229.473 1.80085 0.420002
313.695 10.7296 -1.3
314.026 10.6375 -1.19
42.0948 8.81264 3.46
43.6716 8.76742 3.33
47.1527 8.80486 3.16
46.7848 9.23153 -4.57
185.181 1.03875 -9.34
45.1216 0.684983 2.99
187.602 0.99788 -9.31
286.106 1.68147 -4.08
285.568 1.72972 -4.09
45.3429 0.197721 -4.66
56.9683 8.87678 2.54
59.0271 8.81511 2.31
198.425 1.07369 -9.03
197.865 1.04291 -9.12
272.759 1.62649 -5.14
272.485 1.69056 -5.27
205.129 1.27283 -8.8
267.483 1.54903 -5.59
208.795 1.15757 -8.78
261.222 1.42921 -6.04
260.646 1.45573 -6.09
260.104 1.49269 -6.15
68.1623 8.88975 1.87
247.706 1.34835 -6.84
61.6758 0.727711 1.88
243.841 1.44611 -7.19
66.9769 9.2924 -6.21
241.666 1.43881 -7.3
74.1364 8.91096 1.61
233.373 1.361 -7.68
63.633 0.300987 -6.09
75.2045 9.01937 1.48
64.0069 0.245674 -6.11
38.5805 9.23858 -3.85
77.9811 8.97296 1.32
74.6835 9.24535 -6.75
80.5915 8.91196 1.25
77.7365 0.745495 0.940002
81.6603 9.37291 -7.1
82.1184 9.38741 -7.06
75.7496 0.365533 -6.89
84.3458 9.46537 -7.26
80.9008 0.810206 0.73
91.9478 9.04197 0.709999
80.4582 0.26836 -7.18
82.1413 0.371987 -7.32
-0.196016 0.43506 7.04
85.0082 0.300456 -7.53
95.389 9.40268 -7.88
101.052 9.00371 0.420002
105.519 9.08727 0.290001
8.69032 0.197798 -0.77
103.912 9.49339 -8.24
101.184 0.84973 -0.130001
110.556 9.12173 -0.00999832
111.067 9.09314 0.139999
111.553 9.09174 0.0800018
108.356 9.60791 -8.28
101.683 0.544717 -8.35
110.522 9.58509 -8.46
26.9074 0.621422 4.39
107.627 0.456794 -8.65
37.4951 9.30121 -3.7
113.88 0.899047 -0.599998
121.945 9.13714 -0.279999
111.016 0.511819 -8.79
119.509 9.4741 -8.86
120.049 9.55088 -8.82
123.995 9.15911 -0.279999
112.415 0.528129 -8.76
125.498 9.19923 -0.16
125.886 9.1966 -0.220001
40.04 0.257434 -3.96
2.48822 -0.0600469 -0.220001
122.037 0.953903 -0.849998
4.76861 0.558617 6.58
132.306 9.06964 -0.369999
120.222 0.607344 -9.03
121.192 0.71453 -9.25
137.21 9.32746 -0.579998
137.549 9.72799 -9.18
38.491 9.14995 -3.75
143.796 9.3326 -0.59
140.925 9.62034 -9.3
133.435 0.650653 -9.46
146.879 9.22128 -0.559998
134.795 0.758977 -9.46
34.7515 9.23303 -3.5
144.792 9.64762 -9.39
145.363 9.71603 -9.38
145.837 9.79075 -9.5
149.931 9.34959 -0.709999
137.712 0.633065 -9.59
146.787 9.70515 -9.35
140.472 0.64395 -9.6
140.808 0.570666 -9.48
145.502 0.769578 -9.65
155.729 9.66735 -9.49
157.152 9.77022 -9.48
153.655 1.16192 -1.25
163.829 9.40524 -0.669998
160.561 9.90052 -9.6
156.402 1.12388 -1.29
152.588 0.708496 -9.68
154.015 0.822655 -9.73
169.265 9.35719 -0.709999
166.484 9.73732 -9.47
167.963 9.80463 -9.49
159.435 0.71816 -9.75
305.567 1.56442 -2.3
305.305 1.66988 -2.27
315.445 10.6078 -1.05
314.896 10.6147 -1.15
166.591 1.258 -1.34
298.831 1.60114 -2.97
310.643 10.7188 -1.59
298.15 1.48634 -3.16
162.822 0.883171 -9.68
297.47 1.60656 -3.11
309.053 10.6014 -1.91
173.761 9.8949 -9.38
164.782 0.816511 -9.79
174.188 9.7965 -9.42
294.764 1.67387 -3.39
174.729 9.75954 -9.45
176.359 9.90625 -9.42
289.287 1.57514 -3.93
177.712 9.98823 -9.36
178.117 9.92831 -9.36
304.595 10.1992 5.31
287.427 1.53304 -4.2
286.783 1.43244 -4.2
179.254 9.81882 -9.45
290.376 1.99008 3.78
285.339 1.60684 -4.28
296.018 10.5003 -3.17
282.789 1.41984 -4.45
293.113 10.5501 -3.38
173.627 0.898761 -9.7
280.89 1.58726 -4.73
279.136 1.46275 -4.84
189.037 9.53905 -0.540001
293.85 10.1668 4.45
186.602 9.99729 -9.18
290.809 10.0799 4.24
177.563 0.821892 -9.74
286.07 10.5342 -4
282.46 10.5002 -4.34
191.059 9.92946 -9.16
270.391 1.39301 -5.55
192.529 9.96666 -9.2
183.315 0.977833 -9.49
192.869 9.90467 -9.16
278.976 10.4514 -4.61
197.745 9.59458 -0.279999
267.067 1.45381 -5.75
184.04 0.901923 -9.62
271.689 1.97684 2.42
275.889 10.4302 -4.85
200.011 9.57676 -0.32
191.611 1.2982 -1.08
196.583 9.96252 -9.15
188.481 0.891396 -9.47
189.462 0.918704 -9.56
258.812 1.39396 -6.33
190.617 0.990706 -9.51
258.257 1.382 -6.41
256.401 1.70373 1.37
250.071 1.33552 -6.98
196.178 0.927989 -9.29
249.501 1.38838 -7.1
247.341 1.20251 -7.19
197.351 0.946457 -9.35
262.304 9.8697 2.28
256.588 10.308 -6.31
256.144 10.3462 -6.31
257.103 9.94569 2.02
216.23 9.69654 0.18
251.357 10.3924 -6.55
238.662 1.13485 -7.72
252.553 9.9136 1.71
246.698 10.2039 -6.94
216.093 10.1399 -8.4
249.413 9.93545 1.57
217.856 10.1807 -8.39
237.194 1.57146 0.490002
246.358 9.91336 1.36
223.767 9.74112 0.450001
214.567 1.50253 -0.529999
215.095 1.53415 -0.489998
220.321 10.0629 -8.2
220.745 10.0707 -8.27
233.893 1.59754 0.350002
225.655 9.76356 0.540001
239.027 10.2614 -7.36
238.54 10.259 -7.49
217.33 1.5247 -0.380001
217.724 1.42338 -0.34
223.142 10.1746 -8.19
236.291 10.3371 -7.65
235.644 10.2252 -7.61
239.628 9.85515 1.24
225.567 10.2663 -8
237.529 9.77381 0.940002
227.726 1.5814 -0.079998
221.301 1.10574 -8.44
220.156 1.07137 -8.64
217.951 1.07245 -8.65
