ply
format ascii 1.0
comment Saved by Easy3D (liangliang.nan@gmail.com)
element vertex 205
property float x
property float y
property float z
end_header
4.14849 0.0782974 -0.509998
11.8439 0.107363 -1.3
19.3343 8.9633 -2.07
21.6655 9.06506 -2.32
25.1084 9.19827 -2.54
20.1686 0.0668201 -2.31
21.7808 0.0320466 -2.36
39.0892 9.08495 -4.06
89.196 9.52748 -7.33
100.973 0.555803 -8.31
79.9186 9.52482 -6.86
106.107 0.473976 -8.45
106.534 0.493085 -8.54
85.0706 0.875035 0.77
73.855 0.434264 -6.6
114.123 0.604566 -8.97
58.5657 9.25561 -5.36
56.1484 0.213312 -5.35
43.5323 9.19946 -4.22
46.8576 8.79366 3.26
42.4945 9.20019 -4.08
44.0661 0.155447 -4.33
129.833 9.62365 -9.12
132.153 0.707074 -9.42
130.196 9.64822 -9.15
133.215 9.77361 -9.19
58.5974 9.48602 -5.43
49.5938 0.787359 2.83
44.8332 0.347587 -4.34
141.607 0.993221 -1.19
46.3401 0.167732 -4.57
144.862 9.78226 -9.3
148.708 0.749802 -9.64
145.837 1.0413 -1.23
147.658 9.68984 -9.41
50.9028 0.362501 -4.91
82.9188 9.11618 1.33
85.4679 9.06816 1.17
79.3992 9.5233 -6.77
162.826 0.780712 -9.81
162.704 9.79115 -9.49
163.095 9.79605 -9.43
165.63 0.832149 -9.74
89.1847 9.6036 -7.27
89.4971 9.44375 -7.39
101.925 9.11343 0.610001
95.8942 9.58654 -7.63
82.9972 0.884018 0.860001
170.083 9.3812 -0.790001
171.843 9.41079 -0.599998
172.244 9.45332 -0.75
91.1314 0.624817 -7.6
192.172 0.983969 -9.49
97.0286 0.602564 -7.83
96.7396 0.496429 -7.83
193.161 10.0221 -9.12
142.778 9.40483 -0.32
203.431 0.999006 -9.21
123.28 1.10701 -0.540001
123.001 1.03851 -0.619999
150.641 9.91854 -9.26
216.758 1.2175 -8.67
214.312 10.1488 -8.45
215.026 1.52079 -0.439999
154.579 9.96671 -9.17
222.822 1.20984 -8.48
225.041 1.25768 -8.45
141.431 1.17602 -0.91
227.613 1.17495 -8.21
232.558 10.2115 -7.7
175.329 10.0508 -9.08
233.193 1.64626 0.299999
241.834 1.34342 -7.44
242.286 1.21782 -7.52
241.808 10.3475 -7.31
248.365 1.38412 -7.11
251.926 1.3588 -6.89
289.871 10.6732 -3.58
252.909 10.3743 -6.59
192.483 10.0323 -8.96
285.838 10.6313 -3.86
285.592 10.6795 -3.97
282.182 10.5492 -4.23
258.298 10.392 -6
256.914 10.4321 -6.09
227.247 10.3586 -7.71
274.653 10.5347 -5
278.996 1.54225 -4.86
281.34 10.5524 -4.38
282.002 10.4857 -4.43
286.325 1.65297 -4.1
178.721 1.37147 -1.03
161.117 0.818024 -9.53
165.776 0.892743 -9.61
289.863 10.6431 -3.65
191.429 1.46219 -0.84
294.522 1.96835 4.27
296.386 10.5399 -3.13
300.117 10.5405 -2.65
292.859 1.70496 -3.43
312.103 10.7184 -1.45
310.134 10.2887 5.75
47.1527 8.80486 3.16
289.459 1.72605 -3.78
49.1831 0.59344 2.66
283.983 1.51357 -4.31
49.7046 0.602484 2.72
278.84 1.56529 -4.65
198.692 1.10079 -9.02
68.1623 8.88975 1.87
242.735 1.43348 -7.22
69.1613 9.21606 -6.37
65.5245 0.220965 -6.24
79.5743 9.33673 -7
21.643 9.21729 -2.22
18.0653 9.18239 -1.85
85.3346 8.93898 1.05
-0.0920182 -0.00742 0
95.4288 9.07941 0.580002
95.8835 9.43139 -7.83
-0.00563809 0.06992 0.0900002
102.007 9.0582 0.330002
6.02579 0.180612 -0.48
12.6967 0.608104 5.8
96.9307 0.483826 -8.1
11.9394 0.101061 -1.29
24.7408 9.27617 -2.53
26.4171 9.12219 -2.63
28.3101 9.28096 -2.85
19.3971 0.2084 -2.07
106.457 0.563365 -8.45
38.0498 9.31317 -3.71
125.498 9.19923 -0.16
4.30426 0.0552502 -0.329998
6.37034 0.0199229 -0.689999
123.404 0.971058 -0.82
14.0649 9.14344 -1.44
12.9324 0.522304 5.73
18.1182 9.13931 -1.83
20.2739 0.211902 -2.12
134.694 9.60966 -9.22
27.2378 0.176784 -2.78
28.2486 9.17643 -2.92
28.4148 0.210306 -2.92
29.2934 0.570108 4.45
143.796 9.3326 -0.59
144.792 9.64762 -9.39
141.352 1.01128 -1.2
146.787 9.70515 -9.35
138.291 0.617837 -9.53
147.866 9.73745 -9.41
28.3297 9.23495 -2.82
148.838 9.73465 -9.38
25.0502 9.22255 -2.56
145.502 0.769578 -9.65
21.5888 9.1391 -2.26
12.3986 0.585611 5.84
11.8523 0.13747 -1.26
6.27188 0.132446 -0.649998
2.23682 0.435588 6.72
3.2647 8.68038 6.82
162.985 0.768955 -9.79
172.485 9.85263 -9.38
308.132 10.5536 -1.85
310.587 10.4019 5.71
175.419 9.90821 -9.48
293.053 1.58614 -3.67
175.735 9.75965 -9.54
304.539 10.5797 -2.33
302.358 10.6674 -2.45
290.304 1.61665 -3.92
289.622 1.49432 -3.91
285.339 1.60684 -4.28
296.578 10.5311 -3.05
178.351 1.20681 -1.2
178.774 1.21087 -1.35
174.641 0.928986 -9.72
278.775 1.56322 -4.87
289.975 10.5795 -3.71
286.516 10.5036 -4.03
285.622 10.5574 -4.08
192.529 9.96666 -9.2
278.976 10.4514 -4.61
274.544 10.4921 -5.01
266.738 1.7847 2.1
195.501 1.40828 -1.01
191.671 1.05019 -9.46
251.844 1.29651 -6.8
250.296 10.4278 -6.84
214.525 10.0977 -8.57
218.729 10.0517 -8.35
223.767 9.74112 0.450001
241.314 10.2051 -7.43
240.921 10.1889 -7.36
224.694 9.69024 0.540001
234.866 1.5985 0.310001
233.893 1.59754 0.350002
233.368 1.57721 0.25
227.821 1.10881 -8.27
212.305 1.06536 -8.85
217.33 1.5247 -0.380001
217.724 1.42338 -0.34
239.628 9.85515 1.24
232.763 10.2478 -7.74
225.331 1.60261 -0.0599976
