ply
format ascii 1.0
comment Converted from TXT point cloud
element vertex 1767
property float x
property float y
property float z
end_header
21.85013 0.303855 2.811
20.521604 0.252888 3.418
14.906839 0.528513 4.567
12.633254 0.8544 4.37
0.382181 2.300737 3.682
21.78225 0.44459 3.323001
20.749765 0.571106 3.372001
15.686177 0.782976 4.504001
12.973826 0.723759 5.554999
4.991262 1.089007 6.834001
2.664192 1.094188 7.376
0.814978 2.266621 4.603999
0.489971 2.508855 4.015
23.329339 1.121403 1.909
20.454719 0.463493 4.747001
20.121929 0.64993 4.337001
19.113612 0.510543 5.106999
12.70728 1.636049 4.124
9.217405 0.958946 7.011001
4.507965 1.012027 8.127
2.225778 1.715412 6.799001
1.191304 1.702188 7.061999
22.685762 0.58547 4.650001
22.001633 0.637142 4.731999
18.991428 0.763865 5.454
18.641082 0.69897 5.766999
18.290737 0.634074 6.028001
9.733647 0.895688 8.063001
9.405656 0.928312 8.030999
9.084453 0.946862 8.112
7.758912 1.105505 8.047
7.457078 1.011965 8.391
6.865348 1.663326 6.751
4.611133 1.877123 6.801
3.881124 1.160722 8.964999
2.621826 2.045217 6.817
1.938339 1.160431 9.442
1.016805 2.207839 6.785001
22.903331 1.141446 4.193999
22.958806 1.601891 2.897
22.491718 0.700048 5.539001
21.792022 0.640126 5.964999
21.458238 0.756694 5.752
19.423229 0.659879 6.752
15.39312 0.815102 7.671
14.759492 0.97787 7.474
14.39756 1.080861 7.294
14.100701 1.336671 6.686999
12.852989 2.05328 5.096
9.072866 1.114749 8.835999
9.139109 1.840602 6.835
7.759907 1.175375 9.049001
3.891249 2.362586 6.835
2.470147 1.208766 10.362
1.542644 1.836954 8.853
1.241981 2.316448 7.606999
0.661019 3.233215 5.228
13.448522 1.178236 8.419
13.183789 1.727102 7.009
10.160008 1.881973 7.485
9.751203 1.147021 9.650001
8.224187 2.370773 6.698001
7.896196 2.403397 6.714
2.150934 1.367057 11.092999
1.553411 2.102361 9.224
1.28189 2.665301 7.78
-3.713113 4.74909 56.695998
22.88133 2.050254 3.87
22.053128 0.818108 7.558999
16.59484 1.77637 6.870999
-3.140576 4.712984 55.334998
9.040916 1.324857 10.497001
8.536788 2.72972 6.756999
2.284881 1.449011 11.957
0.551416 3.388521 44.825999
21.970677 0.917119 8.335999
21.635898 0.963817 8.352
21.293336 0.954718 8.516999
21.350801 1.554904 6.844001
21.030592 1.643324 6.728999
19.631026 1.020318 8.959001
14.25782 1.082851 10.584001
10.015469 2.037776 9.304999
8.158473 3.154412 6.779
3.075805 1.535586 12.619
2.405252 1.559111 12.716001
1.3084 3.545464 7.533
1.01353 3.941014 6.516999
22.031945 1.293622 8.304
20.602418 1.020463 9.565999
20.260851 1.081234 9.549001
4.286478 3.125684 35.709998
9.887492 2.375043 9.436
9.957538 2.877211 8.058
9.350243 3.416979 6.713
8.806144 1.523876 12.077001
5.450392 1.43189 13.273999
2.818679 1.637086 13.405999
2.204596 2.190926 12.077001
21.988409 1.671616 8.228999
14.932353 1.338806 11.592999
14.612145 1.427227 11.477
5.441148 2.745845 32.464
10.16434 3.16778 8.116
8.693556 1.469572 13.200999
5.419436 1.711868 13.478999
3.49801 1.739227 13.939
2.218172 2.162779 13.085999
21.911751 1.686685 9.068
14.256711 3.45893 6.887
13.943291 3.533277 6.79
6.691025 2.67214 29.463
10.2733 3.948932 6.839
8.640246 1.65203 13.613
7.654283 1.610161 13.990001
7.95021 4.233594 6.741
7.325297 1.572915 14.22
6.983729 1.633686 14.169999
1.270014 4.775973 7.02
0.719189 5.846056 4.231
22.478846 2.74085 6.821
22.110946 2.424621 7.856
19.84362 1.226944 11.956
19.529205 1.231421 12.054999
16.784904 1.382312 12.612
16.151276 1.545079 12.384
15.422439 1.401712 13.056001
14.745097 1.43931 13.171
13.346587 3.835287 7.037
7.423666 2.591824 27.644
9.064441 1.99541 13.467
2.679177 5.091352 6.709001
1.284585 4.817696 7.808999
1.017862 5.226822 6.775001
0.772674 6.166762 4.265
7.652645 2.476749 26.954001
4.43652 4.828723 37.874999
22.07999 2.704599 7.992999
20.907237 1.323613 12.209001
20.237678 1.417008 12.207999
19.902899 1.463706 12.192
19.840522 3.463282 6.763
15.291476 1.529368 13.636001
14.978056 1.603715 13.537
14.051547 2.301773 11.947
9.710713 4.683739 6.797
9.186978 2.748415 12.275001
3.25645 1.952319 16.113999
0.770861 6.530185 4.174001
0.297865 8.158234 -0.172
-0.379477 8.195833 -0.122
7.696068 4.544703 29.857001
7.528357 5.036281 30.971999
22.582014 3.605945 6.28
22.15384 2.983084 8.116
21.662407 1.84398 11.462001
16.234722 1.515937 14.317
15.893154 1.576708 14.252
13.231367 4.5777 6.936999
9.032667 2.708682 13.367
8.641479 5.174176 6.707999
7.607761 1.778546 16.353
1.000369 7.924602 1.263
0.583781 7.133854 3.544
3.849412 4.823106 24.806998
15.983036 0.527165 4.657001
16.078245 0.8333 4.87
22.536488 3.8442 6.679999
21.294683 2.030915 12.124999
20.204733 1.557246 13.846999
19.855383 1.56222 13.978
14.554214 2.266662 13.897
13.511842 4.643591 7.714
14.229383 3.01206 12.331
12.365484 6.588718 2.76
10.712646 0.448466 2.443
11.422415 7.105313 1.645
11.467465 -0.037495 -0.017
11.045736 6.663417 2.958
10.659285 6.025985 4.86
10.189212 4.914531 8.025001
8.521046 2.114963 16.193999
6.190991 1.910534 17.440999
4.929527 2.152126 17.162999
4.570404 1.961564 17.786
4.249201 1.980114 17.801999
3.92121 2.012738 17.818
1.615737 5.497846 8.846999
1.315074 5.97734 7.568
0.781805 7.298756 4.089999
22.660019 4.667074 5.532001
21.273324 2.003266 13.356
15.622452 1.706355 16.21
14.714318 2.222452 15.110999
14.447595 2.631578 14.078
13.397441 4.95271 8.075
13.118137 5.459854 6.762
12.647949 6.794349 3.269
11.009983 7.097209 2.974
10.593395 6.30646 5.254001
10.14667 5.362396 7.960999
8.538602 2.366296 16.669999
5.607864 2.184397 18.032001
4.014429 2.179133 18.491
0.941909 7.254546 5.37
20.837543 1.827772 15.14
20.894894 4.873907 6.724999
20.121287 1.586388 16.009
19.91092 4.971779 6.807
16.455099 1.778359 16.813001
14.820118 2.29083 16.009999
14.569956 2.881419 14.467999
13.21434 5.835858 6.792001
13.443029 7.663568 1.756
12.426929 7.468384 2.576
11.461506 7.887459 1.773
11.025549 7.208802 3.724999
10.570046 6.139071 6.825
10.625521 6.599517 5.529
9.014645 3.89697 13.467999
8.551359 2.771443 16.699
8.951449 6.32984 6.808
8.015344 7.335525 4.315
7.151793 2.148436 18.815
6.816018 2.125264 18.995
6.517169 2.241334 18.782001
3.282959 2.832483 18.011001
1.092416 7.517963 5.742999
22.634214 5.799566 4.564
20.724136 2.206762 15.127
20.319311 1.75129 16.554
19.969961 1.756265 16.637
20.133288 5.373941 6.679999
17.238241 1.809139 17.506
16.939392 1.925209 17.308999
16.26006 1.823067 17.817
13.333716 5.876089 7.697
12.780082 7.239726 4.139001
20.300885 7.328312 4.233001
10.7772 7.435967 4.252999
10.323687 6.505977 6.926999
10.444411 7.622405 3.842999
8.228166 2.650253 18.146001
7.837912 2.236505 19.408999
7.167358 2.260029 19.572001
6.694601 7.340355 5.747001
5.011927 7.448175 5.943
3.534292 2.814927 19.065001
1.871226 6.262934 10.011001
20.9832 7.640064 3.053
14.271697 7.456093 5.137
5.912568 4.933496 20.215999
22.885724 6.285174 4.167001
22.911062 6.592304 3.280999
21.101986 3.221691 13.188001
20.611548 2.152457 16.287
19.768548 5.770486 6.742
16.119916 6.213791 6.839999
14.97361 2.763857 16.648999
13.398788 6.028908 8.235
20.609507 7.407779 4.669999
10.566595 7.369082 5.495999
10.113082 6.439091 8.186999
8.925582 4.513219 13.811999
9.25463 7.499578 5.546
8.443746 3.066489 17.946
8.083628 2.806056 18.766
6.694829 2.448457 20.177001
5.391465 2.201456 21.193
5.071257 2.289876 21.079001
4.744261 2.39237 20.881999
4.559585 7.091219 8.023
10.828748 2.221871 4.804
23.316064 7.550939 1.458
22.893683 6.844134 3.591001
21.043878 3.557962 13.268001
20.50294 2.377633 16.696
19.01373 6.256447 6.674001
17.103475 2.160479 18.565999
14.339515 4.366245 13.466001
13.523957 5.985195 9.283
16.047238 6.508339 14.212001
9.014002 4.833427 13.926
8.172049 3.126265 18.879001
8.219741 3.530914 17.764001
7.748673 2.34959 21.125999
7.827497 2.977425 19.403998
8.255909 7.052563 8.053
7.237 7.150932 8.071
5.813847 2.90826 20.125999
5.157864 2.973508 20.191001
2.142923 6.203158 12.139001
14.568318 3.748006 13.685
23.431637 7.814853 1.774
23.028801 7.499122 2.792
22.525782 6.527906 5.612
22.045117 5.654209 8.188001
21.64907 5.324404 9.221
20.619507 2.711418 16.783
21.104038 6.310544 6.745
20.222465 2.311743 18.014001
16.097148 2.160831 19.915999
14.30487 2.423958 12.405999
9.91424 6.707483 9.567
8.950806 7.266298 8.287999
8.224715 3.880264 17.835
7.078119 2.373115 22.345
4.521427 3.429829 20.164001
22.008369 6.01813 8.224
21.067403 4.228516 13.474
21.402068 6.627767 6.814
20.176938 2.549997 18.46
20.520267 7.520864 4.665
18.4873 2.168728 20.083999
18.152521 2.215425 20.083999
15.285217 3.052933 18.837001
15.849566 7.349765 6.88
15.16924 7.177753 7.585
14.073321 6.284863 10.39
14.845228 7.489857 3.842
9.884279 7.05733 9.636001
9.070472 5.363743 14.540999
8.271413 4.215043 17.936
7.728308 2.391811 23.118999
7.830481 3.187036 20.921
7.213413 3.531266 20.150001
5.811681 2.265356 24.038001
3.673214 3.246231 21.955001
3.467936 4.535024 18.445001
3.374603 6.814578 12.228999
2.644595 6.098177 14.426999
2.705044 6.907973 12.162999
-4.034316 4.767641 56.445998
21.874422 5.936176 9.556001
21.406338 4.964462 12.394
21.732226 7.238047 6.061999
21.02966 4.522567 13.740001
21.434371 7.423987 5.653001
20.096477 2.788749 18.839999
20.347406 7.159928 6.801
19.965929 6.871846 7.735999
17.403496 2.617442 20.317
17.331408 7.370595 7.325999
7.820532 2.488335 23.877002
8.009488 4.470356 18.365001
8.280077 6.786659 11.919
6.950556 6.665822 12.69
6.607994 6.656723 12.822
5.298837 6.493665 13.609
4.969851 6.456419 13.807
4.33043 6.70313 13.348001
3.607147 3.023543 23.646998
3.743436 4.251564 20.235999
3.478703 4.80043 18.793
2.669933 6.405307 14.594001
22.344495 7.04763 7.384999
21.697291 7.238545 7.122001
20.073304 3.124524 19.03
20.143351 3.626692 17.587001
20.269753 7.105126 8.040999
19.927191 7.096027 8.172
19.620559 7.156301 8.155999
18.294251 2.353176 21.785998
17.682157 3.046757 20.129001
16.575647 2.391624 22.277999
15.686063 3.228924 20.292998
14.585407 5.438961 14.651999
14.421852 6.713182 11.19
4.277701 3.000018 34.541999
9.347496 6.659645 13.044999
8.966838 5.93827 15.144
8.581382 5.370708 16.817
8.18434 4.971033 18.030999
7.58178 2.407874 25.248
6.69144 6.627581 13.929999
5.800799 4.445899 20.164001
4.940295 2.417532 26.019
3.734482 3.622734 23.066001
3.825069 4.585846 20.393001
3.273249 5.586059 17.769
2.99295 6.023332 16.654
5.32856 2.691541 31.624
6.220309 2.497144 29.296
4.182026 4.133504 36.428
21.051195 5.05338 14.391999
20.230776 3.877031 17.919999
19.683869 2.277481 22.526999
17.326661 2.129347 23.757998
15.715847 2.375913 23.692
15.305114 4.450334 18.131999
15.60186 6.640473 12.080001
15.281652 6.728893 11.932
4.357872 4.704051 36.839
4.356058 5.067475 37.412002
7.554628 2.464168 26.170001
6.620161 2.603265 26.070998
6.312533 2.593669 26.202998
3.737115 2.826016 26.283999
3.808156 3.398055 24.709998
3.665141 5.13322 20.003001
3.378054 5.584567 18.838
21.717478 6.69316 10.616
21.25039 5.791317 13.258
21.290299 6.140169 12.272
21.352562 6.586542 11.009999
20.694766 7.015213 10.091001
15.713039 2.669467 23.853
16.228701 6.491779 13.241
14.502314 6.47443 13.881
7.690565 2.685862 26.478
8.007851 5.336944 19.146998
6.654101 2.532898 27.215999
6.949033 5.08646 20.164001
5.672003 5.216459 20.164001
4.727876 2.714071 27.313998
5.002444 5.309854 20.115001
5.085248 6.217169 17.589
4.369748 2.593379 27.742
14.003855 1.897124 10.212001
18.081252 6.535284 13.401999
15.7935 2.430715 25.475001
15.715557 4.318698 20.325
15.450824 4.867565 18.931001
14.622685 6.584531 14.533999
7.680792 2.490325 28.033999
7.753823 3.202104 26.033
8.034184 5.713943 19.046
8.088665 6.104519 17.978999
7.37416 2.550599 27.969001
7.038386 2.527426 28.131999
5.400658 6.282562 18.308
4.020398 2.598353 28.839
14.614549 5.522407 14.033
15.651366 6.681698 13.263
20.642742 5.324756 16.679
19.586846 2.33477 25.290999
19.797866 6.357096 14.202001
18.900727 2.246702 25.782001
19.462092 6.333923 14.415999
18.814887 6.524838 14.120999
16.93278 2.442446 26.012
15.77068 3.772816 22.781001
15.866065 4.582115 20.533
15.069876 6.088974 16.662999
7.409095 2.550101 28.949
6.137858 2.596156 29.211001
5.488664 2.64733 29.243999
5.131531 2.596508 29.491
4.473558 2.522016 29.867999
3.914774 3.033139 28.670001
4.036492 4.219438 25.373
3.737643 4.335508 25.159999
7.653174 3.98624 30.243999
20.243886 5.288505 17.846999
20.361625 6.195323 15.304
20.414115 6.446159 14.599
19.5034 2.363912 26.113002
19.116016 4.605723 20.11
17.806155 2.43001 26.606002
16.812409 2.332345 27.212001
15.826621 2.793641 26.294002
16.287803 6.225377 16.764001
15.664061 4.137732 22.669002
15.758451 4.877161 20.635001
7.500324 2.576756 29.706
6.85113 2.62793 29.771998
7.241446 5.990791 20.422
3.985639 3.102014 29.346
4.029528 3.730347 27.574
3.790134 4.586343 25.294002
3.928413 5.954105 21.521998
4.500597 4.911671 38.966998
7.571189 2.645631 28.490001
19.6092 2.43229 26.813998
20.019705 5.249767 18.971999
18.639683 5.017834 20.104999
18.80213 6.119691 17.070001
17.628558 5.172 20.103999
16.965787 5.251321 20.138
17.083526 6.158139 17.610999
16.255438 2.480044 27.978
15.926452 2.442798 28.223998
15.988715 2.889171 26.944999
15.709411 3.396314 25.648002
7.278133 2.677757 30.471
7.651889 5.859155 21.646998
6.606584 2.631412 30.798999
6.96577 5.771087 22.123
5.60605 2.547821 31.358001
6.005145 6.036349 21.679999
5.320777 2.635744 31.209998
3.782175 4.027383 27.797999
3.869776 4.780885 25.748
4.267109 3.237775 37.032001
20.259628 5.903262 18.198001
19.229952 5.736225 19.016999
18.133152 2.327516 28.776
17.143385 2.509331 28.660998
16.977726 6.089762 18.935
16.164209 2.45339 29.152999
16.05215 3.908577 25.249999
15.716376 3.885404 25.398002
7.502314 2.716496 31.401
7.547084 5.860648 22.756999
6.828776 2.530411 32.138999
1.796319 2.965466 32.45
-4.876912 3.996935 56.123
19.608734 3.871911 25.195998
19.825661 5.364344 21.079001
16.437896 2.533354 30.083999
16.862153 5.825847 20.915
15.860738 3.226437 28.394
16.008613 4.286572 25.475001
15.760441 5.016901 23.523002
9.448902 2.493102 32.643001
6.2477 5.893127 24.343001
4.245574 2.706961 33.676002
4.141474 4.721109 28.197001
3.616744 2.715915 33.856002
3.311106 2.846059 33.561
1.691514 2.966958 33.741
1.702282 3.232365 32.97
1.050103 3.073929 33.594001
0.767814 3.371463 32.823001
0.436838 3.194477 33.395999
-0.510211 3.431591 33.035998
4.30421 3.880181 34.645999
19.219122 2.521705 30.400001
18.519427 2.461784 30.794002
17.953917 5.936093 21.510001
4.962006 3.45151 32.497001
11.792533 2.669384 32.713
11.472325 2.757804 32.596999
4.196773 4.678391 36.055999
8.466918 2.730714 33.631
4.185477 2.903493 34.533999
19.688553 4.569617 25.818999
19.523008 5.704098 22.802001
18.836889 5.61603 23.325999
17.808207 5.518863 23.965999
17.487999 5.607283 23.834998
16.437896 2.533354 32.658999
5.489721 5.666313 34.514998
12.791078 2.613235 33.740001
12.46888 2.561915 34.035998
11.811903 2.557293 34.266002
9.965497 3.436172 32.493999
7.572889 4.728156 28.283999
6.626949 2.589192 35.872001
1.041853 4.457754 32.412002
7.306342 5.640446 30.252002
-2.818378 4.764304 32.591998
7.652707 5.425862 29.120002
13.788452 1.984052 9.756999
17.360778 2.562143 33.267001
14.410556 4.938284 12.594001
14.373808 5.302206 13.2
8.15982 4.230609 31.922
7.327639 2.718983 36.301002
7.375331 3.123632 35.186
6.328161 5.654375 28.609
5.984604 5.575405 28.921
5.321772 2.705614 37.006999
5.64883 5.552233 29.101001
4.710559 5.915014 28.395999
4.015662 5.701279 29.2
-0.999768 4.878177 32.840999
-1.34233 4.869078 32.988002
-1.683897 4.929849 32.873
18.219354 7.399882 7.136001
19.873291 2.819881 32.409999
18.844609 2.722714 33.033
17.802352 2.653694 33.639998
17.466578 2.630521 33.837001
15.526953 3.343005 32.623
6.722157 2.895327 36.870002
4.428032 2.760271 37.954001
4.057385 5.686708 30.065001
0.043485 5.017067 33.033
20.367179 2.659103 33.382998
20.023622 2.580134 33.743999
19.561218 3.970426 30.135001
19.138723 5.70957 25.542998
16.726154 2.655041 34.794002
7.344199 2.900446 37.45
7.340282 5.570079 30.118999
6.699803 2.797807 37.943
5.054935 5.560689 30.840999
4.200224 3.44838 36.926002
0.192003 5.140744 33.431998
20.874416 7.362076 5.035001
16.815808 6.497396 13.396001
21.797702 3.002132 32.766002
19.839527 3.393412 32.503001
17.717911 2.612965 35.456
17.38992 2.645589 35.504001
15.606772 4.04071 32.354999
-1.628132 3.447509 55.287002
-5.215495 4.267316 56.291999
11.330305 4.562839 32.454001
7.188894 2.790843 38.686999
6.532911 2.856091 38.768001
5.888515 2.753452 39.243999
6.195209 5.642291 31.174998
5.253891 2.846349 39.178
4.277701 3.000018 39.063998
4.396434 3.976706 36.358001
-4.817457 4.736861 56.095
22.78267 2.97413 33.399001
18.64758 2.627681 36.006999
18.715523 5.436059 28.315001
17.075567 5.599179 28.512
16.081115 3.488859 34.613002
11.854154 4.052214 34.629001
4.225386 3.252346 32.944999
7.090877 2.778262 39.729999
6.769673 2.796812 39.812999
6.767746 5.606185 32.120002
4.221583 3.476029 38.714
4.316967 4.285328 36.499999
3.445934 5.443832 33.581
2.160126 5.448164 33.957
4.117949 4.050556 34.403998
4.301578 4.676899 34.88
4.413523 5.66766 36.027999
24.197627 3.205565 33.157001
19.561746 5.479917 28.893001
18.844609 2.722714 36.683002
16.781163 4.555108 32.484
16.240049 2.871615 37.305999
5.552803 5.679392 33.437999
11.896053 4.540807 34.305999
7.834989 4.976007 27.091998
10.39221 5.428784 32.419002
7.1831 2.874786 40.505
7.255136 3.516695 38.685
7.509164 5.651535 32.747001
5.924445 2.822824 41.062999
4.382682 3.501689 39.685
13.794421 2.403272 9.400001
14.604538 1.874594 6.728
26.039586 3.486828 32.582999
19.479119 5.075765 31.009002
19.191037 5.457242 30.074
17.095869 2.607846 38.718001
16.447669 2.72889 38.636001
16.228638 3.542666 36.471
15.722169 3.801461 6.908999
10.171014 5.599656 33.042998
9.850805 5.688076 32.912002
9.180252 5.711601 33.06
8.52228 5.637109 33.503001
8.200082 5.58579 33.766002
5.238326 2.734756 42.506999
4.350731 3.711797 40.113002
4.221293 5.418814 35.505
14.196148 5.095083 12.353
26.066914 3.933698 32.303
24.023304 4.21438 32.416999
22.602554 4.066888 33.417998
19.404741 3.287789 36.912002
17.649036 2.68383 39.257998
16.275978 2.940988 39.061
16.359601 3.41501 37.782001
15.099836 5.739126 16.363999
11.210286 5.459066 34.026
6.940545 3.018009 42.211001
6.226279 2.916364 42.686
5.569301 2.911742 42.949
5.879799 5.576898 35.519999
0.003047 3.158723 43.916999
14.568961 2.811549 13.412
-3.862978 3.549216 43.917998
-4.840164 3.633014 43.966998
24.012712 4.452137 32.651
19.039648 2.678006 39.589
18.703874 2.654834 39.785998
16.748508 2.75256 40.295001
16.287098 4.212722 36.524001
16.053497 4.984775 34.438998
15.13758 5.445075 33.553
12.503877 5.510531 34.340999
12.182674 5.529081 34.407001
11.185124 5.6551 34.440001
4.455536 3.710304 42.034999
3.063753 3.143095 43.97
2.442705 3.207845 43.986999
0.202066 3.393495 44.117999
-0.397623 3.485895 44.068999
7.967123 5.421385 32.644
-3.244739 3.778019 44.053
-3.581508 3.684976 44.381
7.652531 4.922698 32.644
-3.915292 3.801544 44.151999
-5.754091 4.233055 43.430999
-6.096653 4.223956 43.561
5.417623 2.075292 17.908999
7.557323 4.616563 32.414001
26.764796 4.357043 32.573001
25.760458 4.497135 32.638
18.663146 2.739275 40.478
18.327372 2.716102 40.642001
18.424456 5.607926 32.72
17.374416 5.483109 33.457999
16.450011 3.874958 38.231002
8.991939 2.793123 43.940001
6.030245 2.891202 44.662002
5.694471 2.868029 44.794002
5.388833 2.998173 44.563998
1.49946 3.221276 45.138
-2.327651 3.890752 44.384002
-5.774455 4.275276 56.692
-5.334695 4.730249 56.332
3.060768 2.933485 34.247001
24.193357 4.86887 33.267001
23.474292 4.92104 33.381999
21.819765 5.042437 33.775001
21.449056 5.019761 33.972999
20.461279 5.341317 33.513999
19.062002 2.775526 41.075
19.301283 4.365479 36.645999
19.400471 4.951094 35.055999
18.784398 5.365194 34.137
17.043554 2.860174 41.699
16.693209 2.795278 41.977
16.104174 5.599034 34.580001
10.049762 2.973736 43.978999
4.093429 3.310132 32.394
4.554725 4.295919 42.176002
4.339674 5.389175 39.221999
1.238706 4.049623 43.865001
-2.301317 4.267752 44.276
23.264392 6.866809 2.736
19.216313 2.815259 41.874
19.292153 3.233484 40.725001
18.880539 2.792086 42.087001
18.565129 2.726693 42.399001
17.281311 2.870765 42.530002
17.318122 5.455957 35.443999
16.609763 2.82442 42.923999
16.966782 5.321191 35.952998
16.34503 3.373287 41.464
16.210617 4.730954 37.839
16.32537 5.428162 35.871001
4.264829 5.04082 34.510001
10.767831 2.851697 45.006999
10.47577 2.953693 44.843001
8.545566 2.855386 45.795001
6.639706 2.994339 46.040999
5.674106 2.91025 46.582999
5.970033 5.533682 39.298999
5.683765 5.551735 39.381
5.354779 5.514489 39.561999
4.471921 3.388604 45.680999
-2.963912 4.850237 43.878001
-3.306474 4.841138 43.942
-3.620889 4.845615 44.056998
7.699871 4.32102 25.476001
7.753357 4.641725 25.804
13.599848 1.008359 6.898999
19.230884 2.856982 42.887
18.501052 2.643745 43.723998
18.166273 2.690442 43.741
18.590354 5.479772 35.964999
16.896031 2.806367 43.936999
16.426838 4.210732 40.311999
15.891693 2.94646 43.920001
16.225364 5.275841 37.442
12.271032 2.900177 45.445998
11.948834 2.848857 45.707999
13.798867 1.243131 6.735
11.087397 3.699734 43.707
7.102639 3.113538 46.676002
7.134766 3.406595 45.856002
5.495628 3.136421 47.151999
5.73608 5.299407 41.116
4.829873 3.006132 47.742999
5.071319 5.238989 41.509002
4.595277 3.708315 45.888999
4.458055 5.359536 41.379001
-1.039501 5.032488 43.921
-1.361699 4.981168 44.166999
7.784665 5.368075 26.820998
13.977521 1.520124 6.735999
13.579018 2.490201 9.064
18.902893 2.889606 44.107001
19.111042 4.256373 40.283999
18.560331 2.880507 44.238002
18.260373 5.372656 37.561999
16.576818 2.964658 44.845
16.18276 2.774593 45.485
16.290726 3.485875 43.516002
15.225938 2.816171 45.763
5.827309 5.326062 37.497001
7.188603 4.733628 43.417998
6.676631 3.133581 47.962001
6.930658 5.268421 42.023002
6.304927 3.041036 48.338
5.219661 4.859502 43.747001
4.691128 3.077992 48.763999
3.601064 5.050271 43.695998
0.643173 4.924667 44.943999
0.322965 5.013087 44.811999
-0.933701 5.100865 44.943
19.804416 2.890746 44.916999
19.141645 2.970067 44.949
18.796098 2.751358 45.72
19.175471 5.345649 38.454001
18.482678 2.825705 45.604999
18.868839 5.405922 38.405002
18.146904 2.802533 45.818999
16.431813 4.560082 41.701999
16.041558 4.146334 42.964
11.723016 3.676706 45.916999
5.938021 2.794677 33.561
4.400237 3.753022 38.561999
6.807593 3.005925 49.442
6.455144 5.247238 43.472999
4.501591 4.981541 44.832999
3.553548 5.148786 44.652999
4.463786 2.32648 20.499999
4.450562 3.360954 37.825
22.062611 2.956429 44.917998
21.691902 2.933754 45.115001
16.654471 3.019459 46.968001
16.381955 3.512529 45.721
11.820214 4.122581 45.803
10.282431 5.080926 43.736999
6.739713 3.14666 50.264998
7.022882 5.364946 44.096999
6.000989 5.253705 44.769999
5.06763 3.016723 51.165999
4.612013 4.392942 47.575
21.969983 7.248639 6.344001
24.405247 3.062841 44.649001
23.739668 3.435716 43.912002
22.764472 3.659254 43.763
18.867958 2.890103 47.503001
18.540962 2.992598 47.388
17.869299 5.392201 41.122001
16.84951 2.974752 48.109
16.55464 3.370302 47.091998
16.623691 3.802601 45.944999
16.840618 5.295034 41.778998
10.048653 5.349815 44.206
8.742481 5.396367 44.499999
8.021427 5.308797 44.992
6.760077 3.104439 51.471
5.446122 3.095195 51.929999
4.755205 3.160941 51.962996
21.597284 7.086223 6.984
8.479966 1.193076 9.515
-6.348981 4.171642 56.954001
24.680924 3.282545 44.820998
20.857793 4.231501 43.919002
18.367281 3.064955 48.149001
18.678598 5.296817 41.916999
16.683612 3.102906 48.722999
16.327184 5.064739 43.524001
16.026345 5.041069 43.704001
12.78915 5.422607 43.901
-5.999455 4.669831 56.938003
10.150473 5.138713 45.672999
5.992501 3.185253 52.429999
5.3491 3.152484 52.740996
5.026902 3.101164 52.987998
5.301294 5.193784 47.181998
28.461689 3.284617 43.992999
27.464139 3.410636 44.157001
27.142936 3.429187 44.240001
25.761101 3.560678 44.519
18.603049 2.935806 49.339999
16.631298 3.355234 48.996001
16.519239 4.810421 45.042998
15.231617 5.178176 44.567
6.704778 3.147157 53.261001
6.292055 5.081838 48.076999
5.424763 3.067546 53.900001
4.350379 2.705469 30.066001
4.814131 2.391375 28.476001
4.999574 2.654295 28.458999
25.919391 3.879891 44.458999
21.635317 4.849387 43.721
21.279179 4.868435 43.836001
18.310987 3.037803 50.068
18.629092 5.255591 43.901
16.671031 3.200923 50.315001
16.746871 3.619148 49.166999
16.795558 4.093667 47.804999
15.304472 5.386792 44.886001
4.147267 4.637165 33.346999
6.090518 3.197834 54.266997
6.007777 5.239631 48.658999
5.336229 5.193286 49.068999
2.492211 3.249071 55.318
4.322294 5.641006 34.444999
7.778167 3.439364 23.131
-5.195307 3.721932 56.221
-5.509722 3.726409 56.334998
-0.062844 3.439198 32.634002
4.964701 5.603905 32.871001
25.84092 4.258383 44.353999
21.722743 5.099725 43.927001
20.080797 5.123105 44.583999
18.955736 4.146769 47.749
19.025782 4.648938 46.289001
17.150349 2.998422 51.603003
16.836929 3.072769 51.538001
13.300999 1.124429 6.867
6.503831 5.721757 29.443999
7.584651 5.063433 25.950999
3.777024 3.174869 56.016997
1.592678 3.387671 56.149001
1.305415 3.335854 56.411002
0.976429 3.298608 56.575004
0.02739 3.395982 56.656997
-0.271459 3.512053 56.411002
-0.56352 3.614049 56.231002
-2.064555 4.208473 55.000999
-3.616267 4.188637 55.476996
-6.100633 3.944476 56.887
26.475719 4.668649 43.992999
26.132162 4.58968 44.338
24.798838 4.692527 44.665999
18.807861 3.086635 51.653998
18.909039 3.81199 49.637
16.823353 3.100916 52.442
16.906975 3.574938 51.112998
16.643237 4.193674 49.538001
16.719076 4.611899 48.357001
13.578023 2.420331 8.146001
5.685869 3.245527 56.232001
4.792306 3.803347 55.017997
4.884706 4.403035 53.345
4.434996 3.249361 56.657996
2.57402 4.086517 54.985
-0.279884 4.392714 55.035003
-2.847696 4.177694 56.363997
30.105977 4.407305 43.929
14.659371 3.271497 6.867
18.906873 3.169086 52.410003
18.534174 3.006671 53.016997
18.842506 5.028923 47.341998
17.220219 2.997427 53.575004
16.666409 3.8579 51.475997
10.206063 3.153209 55.922004
9.235665 3.222934 56.053
7.573355 3.288535 56.462996
7.251157 3.237215 56.740996
5.815546 4.990785 52.412002
3.458163 4.339487 55.020003
-1.451291 4.087926 57.235
-1.684892 4.859979 55.202003
-3.031968 4.487808 56.595
-4.311983 4.408196 57.186004
-4.958192 4.668981 56.645003
9.433803 0.941888 6.924001
17.905343 3.015625 54.176002
17.89926 5.042354 48.681998
16.948522 3.057203 54.471
14.670957 3.10361 55.291999
14.021763 3.154785 55.388999
13.314285 3.039067 55.947997
12.985299 3.001821 56.209998
11.760759 3.382655 55.636001
11.378288 3.024703 56.735
11.07265 3.154847 56.554999
10.767013 3.28499 56.307998
16.784853 6.777373 6.884
6.473518 5.065277 52.945998
5.327917 3.627998 57.309997
4.865513 5.01829 53.619002
-1.215171 4.965105 55.719001
-2.187558 4.89509 56.179
-2.519529 4.648234 56.966002
-4.711658 4.805239 57.179999
18.752562 3.129353 54.554999
16.653186 4.892375 50.586001
14.350749 3.192031 56.163001
8.546095 4.364877 55.146003
6.929487 4.695387 54.850997
6.467197 3.63973 57.917998
5.557073 4.016087 57.196998
5.670013 5.076719 54.210998
2.02021 4.94699 55.802001
23.563594 7.757067 0.254
22.015685 7.513548 3.565
21.671133 7.364709 4.188001
16.934127 3.518644 55.211997
16.202305 3.165666 56.490996
14.918663 3.812902 55.229003
20.12422 7.191059 7.598001
6.686756 4.335445 56.917998
3.490466 5.135707 55.851996
18.794523 6.567058 12.901999
10.886327 0.376109 2.71
18.492451 3.021242 56.915
18.607205 3.71845 54.980002
18.171247 3.039792 56.964004
13.686165 3.634776 57.193999
13.787343 4.360131 55.177001
15.185096 5.346561 16.615001
7.025515 4.568228 57.145003
5.8379 5.088305 56.126998
5.514707 4.967115 56.603003
4.543314 4.96697 56.915
2.65103 5.077776 57.226996
14.62426 2.768831 14.252999
17.907043 5.09815 52.485999
16.49191 4.363551 55.078002
14.723624 3.85761 57.142997
11.865917 4.38749 56.815001
10.546169 4.46219 57.127997
-0.414184 3.304432 33.222999
3.910681 5.199608 26.041999
-6.299299 4.716031 56.772002
18.736353 3.954217 56.173003
18.806399 4.456386 54.762
18.330533 3.428876 57.830001
18.218473 4.884063 53.860999
17.311624 3.527245 57.943999
16.8113 4.708424 54.927001
14.093975 4.299857 57.157996
13.572116 4.950223 55.614997
-1.352455 3.667213 43.770999
25.557284 3.479719 55.386001
24.270481 3.414181 56.173003
23.913348 3.363358 56.434997
23.556215 3.312536 56.779998
23.227229 3.27529 57.009002
16.853842 4.260559 57.124
15.625499 4.865077 55.990996
14.707592 5.185638 55.484
13.385854 5.120597 56.170997
4.077687 2.695375 29.769
4.534651 2.395355 28.245002
-4.203198 4.686184 44.045001
11.071769 0.639028 2.644
5.031524 2.444187 27.194999
27.589308 3.366924 55.623
26.190913 3.316951 56.426002
8.343977 6.366444 16.674001
25.198161 3.289157 56.968001
18.631724 4.458873 56.736999
16.02535 4.971199 56.442
4.088983 4.470273 32.394
27.309828 3.370903 56.629996
26.967266 3.361804 56.844001
24.718201 4.428115 54.989997
19.300464 4.798772 56.432998
18.600769 4.738851 56.891997
18.288343 4.883068 56.662002
17.808674 4.079241 59.024001
7.874018 2.809041 21.081
7.855001 3.927459 22.803
20.041706 4.340959 6.818999
5.435417 5.778901 31.131
28.376429 3.677183 56.181998
26.833671 4.286178 55.279998
24.846355 4.594012 55.427001
24.525151 4.612563 55.526
21.873075 4.859979 56.082999
21.178178 4.646244 56.936004
13.553151 0.67358 4.751
14.135284 0.329846 2.897
29.541866 3.56275 56.835998
25.921557 4.522795 56.066001
24.236894 4.490876 56.934997
14.34109 0.550545 2.718
13.244881 1.600441 6.849
7.713976 5.802364 25.852
13.441267 2.63193 7.915
13.70056 3.173335 8.063001
30.187433 4.238423 56.918998
29.580957 4.344897 56.952003
16.10435 6.102198 6.686
12.879385 5.379392 4.64
16.182356 7.163327 7.999
14.517289 2.127419 13.581
7.759502 5.564109 34.387
7.472063 5.009129 34.255
7.494241 4.603484 33.583999
5.611905 5.41299 39.173999
7.465741 3.583581 32.188998
4.509374 5.037338 41.191001
3.943802 5.562534 26.533999
4.539335 4.68749 40.632998
5.861891 4.319237 20.188998
11.201913 0.944665 2.825
6.828423 1.524083 13.794
4.039011 5.868669 26.714
4.529096 5.931575 25.681998
4.750292 5.760703 24.910998
9.894456 2.864133 8.679
10.183709 3.05569 8.318
30.077654 3.890565 56.888
29.351625 3.453644 57.126998
7.241446 5.990791 19.450999
29.440222 4.277017 56.943
7.766467 6.0532 18.320001
9.311038 5.080781 13.318999
9.053093 5.615574 14.679999
28.045629 4.003361 55.841002
8.61468 6.236798 16.615001
27.941995 4.577887 55.819999
26.881187 4.187663 56.954001
27.613009 4.540641 55.659003
13.244829 6.995502 6.891999
-0.984202 4.98977 43.995002
4.446406 2.57831 27.845
26.62687 3.995609 56.401
27.096591 4.100735 55.401
4.105015 3.142245 29.436
4.123099 4.90307 32.011001
25.796036 3.56018 56.947997
26.80254 4.062992 55.193999
26.404855 4.599774 56.867003
8.119382 2.372265 18.976001
26.160309 4.603256 56.529998
12.981609 0.779556 5.318999
13.764574 0.307171 2.811
7.75716 4.418042 22.812999
7.813807 5.451521 24.239001
25.972058 4.633891 56.121001
13.31528 3.108937 7.942
25.719554 4.078412 54.968001
25.771226 4.762542 55.772002
30.331972 4.08262 43.853
15.162742 5.249041 6.762
29.49037 3.381785 43.942
14.249167 6.85541 11.172999
25.106466 4.702123 55.253997
15.705846 7.072274 8.106
15.988311 7.277905 7.697
28.547125 3.395216 44.155002
22.724563 3.310402 56.978003
23.724631 4.833614 56.600997
6.74533 2.559552 32.370002
28.261209 4.419596 43.975001
22.717308 4.764096 56.789001
4.42142 3.277508 38.846
21.693891 3.073494 55.959998
22.452399 4.809799 56.47
22.067119 4.745401 56.354003
22.245773 5.022394 56.289001
2.446685 3.487325 43.748
26.064925 3.793958 44.464
-1.982104 4.109461 54.929
25.174812 3.121767 44.766002
25.582446 3.283685 44.028998
25.965094 4.1448 44.259002
26.032156 4.437359 44.455001
-2.653476 4.56628 57.175002
21.158632 4.255171 54.973998
21.369413 4.82522 55.237998
-2.815746 3.967586 56.634002
-3.063276 3.761458 56.929
23.286922 7.467493 1.558
-2.287917 3.736441 43.926002
-2.199497 4.056649 44.238002
-1.945179 4.248704 43.908999
23.995799 3.264347 44.913001
1.664362 3.023252 33.743999
18.685676 3.339958 56.895003
20.030296 5.01201 55.929
24.891062 4.789051 43.961001
18.801073 3.100709 55.453002
17.842614 4.008874 59.011001
19.090326 3.292266 54.994002
18.797445 3.827556 56.47
3.874398 4.123908 30.252002
4.073417 4.35868 30.138
18.72857 3.898421 55.874999
18.922615 3.783843 55.203002
18.830567 4.190482 56.023002
18.991023 5.152599 56.941001
3.3557 5.487047 33.431998
4.145453 5.000589 30.907001
18.28483 3.163967 54.974998
18.719616 3.26959 54.039001
18.947134 4.524267 55.204001
17.507482 3.049244 55.569999
18.626398 3.103196 52.946998
18.91565 3.294753 52.521003
18.768304 3.74411 53.487998
18.960534 3.992956 53.373
18.709377 4.513675 54.718001
18.686205 4.849449 55.226996
17.188797 4.717026 57.542998
18.970131 3.685329 51.853003
16.630655 4.291691 57.235999
16.983809 4.063033 56.04
18.957373 3.280182 50.252002
18.890664 3.993951 51.400001
18.885223 5.084222 52.941001
16.904166 3.868491 55.001998
16.75998 5.030622 56.920997
17.885684 5.070501 54.298003
18.939352 4.46847 50.920001
17.197865 2.899907 51.858001
16.97983 3.783553 53.611999
16.742249 4.276125 54.858001
16.220389 4.926491 56.989997
19.070314 4.340814 49.366
18.983241 5.096803 50.611999
13.689906 0.46198 2.052
25.991251 4.018636 32.365001
15.172629 2.998629 55.802001
18.566124 2.796563 47.408
16.873211 4.148469 53.293998
16.060285 4.970701 56.360999
19.092491 3.935169 47.736999
19.018994 4.663012 48.884002
18.961882 5.069153 49.621001
24.833245 3.182538 32.981002
14.865002 2.989032 55.467002
12.993548 1.617996 5.346999
15.724511 4.947529 56.139998
19.031047 3.055503 45.63
16.898726 4.958762 53.335998
19.200105 3.640123 46.04
19.064521 4.424757 47.434001
18.998806 5.208396 48.679999
14.522439 2.979933 55.301002
16.816565 3.114989 50.006
7.282174 5.90635 24.956
16.848225 4.847667 52.350997
19.198115 3.500383 44.874999
17.179201 5.024653 51.792998
19.09928 3.921096 45.679
16.780635 3.045617 48.950999
15.146181 5.067578 55.657996
19.090149 2.789102 43.097999
16.738445 4.499809 51.067
19.233869 3.066592 43.164001
16.93565 5.098005 51.428
19.049774 3.87987 44.706
19.179917 4.185508 44.837001
18.089501 5.151459 48.756
19.161719 4.870632 45.804
24.444514 4.348151 32.443
13.357179 3.59753 7.38
14.530927 5.048385 6.724
13.660184 4.264104 57.153998
14.167006 5.011637 56.989997
16.796553 4.163537 49.562999
19.010859 3.600888 43.513999
23.414485 3.174786 32.415
15.384643 7.090825 7.676999
22.960921 7.639857 2.591
17.056021 5.208106 49.478999
19.364189 3.875393 42.132998
18.776615 5.309398 45.526999
22.876065 3.643688 33.459998
20.233823 7.035754 8.165
19.826189 6.873836 8.901999
12.27981 3.025843 56.931998
12.676034 3.858812 57.145003
18.042099 2.804025 42.914001
16.688763 3.95542 47.750999
19.194136 3.220903 40.749999
16.780344 4.988402 48.981002
19.135209 3.990469 41.979999
19.250782 4.254383 42.047
19.061712 4.718311 43.178
22.89959 4.314242 33.456
23.142145 4.17102 32.701999
13.397441 4.95271 56.018996
13.64497 5.158838 55.707999
16.632293 3.425104 46.214999
19.341659 3.27471 39.575
18.411699 5.202779 44.428
14.699747 2.180729 14.328
15.290481 1.459498 11.901
12.987993 5.154216 56.260001
17.278327 2.661155 42.602
16.59057 3.439675 45.324
16.581968 3.817172 45.866
16.658979 4.808431 47.045001
19.265001 3.289778 38.749999
16.747399 5.128639 47.290999
19.457231 3.538624 38.636001
-2.384587 4.800057 44.465999
11.953166 4.134665 56.159003
11.867906 4.52723 56.914001
12.17571 5.039991 56.915
16.577989 3.537692 44.339
18.137131 2.606996 39.339
16.713107 4.192679 44.929999
19.325917 2.659953 36.600001
19.273778 3.415445 37.764998
19.243818 3.765293 38.338
17.564481 5.089051 44.158999
19.429261 4.028212 38.256999
18.793176 5.490861 41.766002
22.119609 4.996237 33.142001
1.936235 3.46664 32.447001
4.494917 2.549666 25.167998
10.965213 3.953057 57.203002
16.53211 2.769619 42.366
16.384763 3.218976 43.317
16.479972 3.52511 43.514998
19.447282 2.839924 35.546
19.40872 3.567269 36.628001
19.445003 4.642969 38.006
19.207422 5.135541 39.285998
19.364717 5.384885 39.269
21.903211 5.013295 32.694999
3.010153 5.268338 32.628001
10.529256 3.274399 56.209998
16.386753 3.358716 42.438998
15.984622 5.05564 45.783999
16.553179 4.740053 43.996001
19.540501 3.006319 34.504001
17.060001 5.487586 43.801002
19.409891 4.140303 36.406001
19.258917 5.316507 38.357001
21.513133 5.10271 32.685
8.869226 1.536954 13.509999
10.805461 5.003595 56.978003
16.557801 4.083076 42.059001
16.569563 4.418353 42.468001
19.411353 2.770551 33.450999
15.846872 5.197369 45.288001
19.56186 3.033968 33.451999
19.509722 3.78946 34.631999
17.629552 5.24187 41.124
17.828571 5.476642 40.978
18.699957 5.324466 38.681998
19.051297 5.459232 38.042998
19.280276 5.344157 37.338
8.935468 2.262807 14.445001
4.182554 5.642996 30.463
14.019773 3.015045 45.614001
18.163112 1.977668 34.318
19.421125 2.966088 32.679
19.564845 3.243578 32.745002
19.466009 3.664291 33.565001
18.020626 5.222324 39.188998
19.420659 4.405709 34.712001
19.345348 5.496975 36.434001
9.182532 3.908556 57.212996
16.365218 2.827902 38.72
16.425491 3.134535 38.983001
16.381955 3.512529 39.622001
15.503314 5.1184 43.966998
19.419135 2.826348 31.457
19.459045 3.175201 31.852
16.504844 5.271861 41.803
19.505742 3.50998 32.228999
18.272954 5.274639 37.606002
19.527454 4.543957 33.589999
19.477129 4.936025 34.262
19.33657 5.371309 35.213
8.463467 3.960726 18.019
12.744028 1.272128 4.115001
9.527436 5.063723 57.009002
6.756159 5.774072 24.674998
14.294631 3.668042 43.746001
16.357435 2.772106 37.614001
16.606778 2.61481 36.777999
7.426713 5.750547 23.086001
15.142378 5.291262 44.026
18.910852 3.448566 32.484
16.406827 5.25928 40.943
19.636705 3.382324 30.679
16.764955 5.379972 40.270999
19.382739 4.196597 32.417998
19.566368 4.82294 32.827998
8.416594 3.122783 55.789001
8.165437 3.643502 57.150001
9.772976 5.130111 55.446998
14.60858 5.103187 44.003001
18.240123 2.968927 32.427001
14.703789 5.409322 44.184001
19.663681 2.822866 28.804
19.486373 3.62207 30.329001
17.059006 5.417716 38.643001
19.665028 3.899063 30.313998
17.639325 5.437406 37.266002
19.460568 4.754562 32.002002
13.513013 5.216625 8.067
13.666682 6.192815 9.116
13.815376 6.819656 9.657001
15.057647 7.193319 7.28
16.283938 3.499948 36.79
19.719156 3.283312 28.346999
16.751379 5.408119 38.366
19.459397 4.181528 30.233001
19.499307 4.530381 30.577998
8.584367 5.580318 33.526999
13.877929 5.323243 44.075999
16.931847 5.321689 36.861999
19.69019 3.703029 28.040999
17.110502 5.598682 36.829001
19.549165 5.577934 31.010001
8.247422 4.984111 55.984
8.460016 5.190737 55.787002
11.879316 3.85618 45.802001
16.228462 3.039502 34.408
16.198502 3.38935 34.931998
18.324387 2.506492 28.686
7.43233 5.16344 35.674998
6.739599 5.592609 37.888
19.665494 2.459442 25.457
19.779253 3.08678 26.063998
16.408817 5.39902 37.262
16.982348 5.432784 35.983001
19.653618 4.570114 28.391002
18.570984 5.591863 32.409999
-0.084431 8.303446 -0.015
6.741702 3.2864 56.095
7.217217 3.307583 55.013999
7.753533 5.144889 56.359
11.84918 3.702863 44.669002
11.845553 4.429711 45.686
12.662986 5.39645 45.144999
16.217871 3.277259 33.734
16.174334 3.655254 34.388999
16.385115 4.225303 34.701999
5.510085 5.624093 40.806998
19.8208 2.569045 24.241
7.576516 4.001309 33.609
16.352523 5.371868 36.374999
19.885229 3.658322 25.603
17.18716 5.583613 34.701999
17.817804 5.211236 32.669002
19.314393 5.776953 29.915
19.619035 5.576939 28.915
5.656085 4.098538 58.799003
6.859265 3.690054 55.388999
6.780793 4.068546 56.126998
6.349168 4.675697 57.979003
6.695534 4.461112 56.881003
6.755807 4.767744 57.143996
16.121844 3.404418 33.141002
16.29769 3.974965 33.551002
19.895645 2.917401 23.517001
7.675352 3.580596 32.805999
7.481307 3.695174 33.412002
18.038181 5.473658 31.519
19.602298 4.892312 27.026999
18.893183 5.643182 29.732001
5.443314 3.388749 57.229003
5.764693 3.873362 57.147002
6.838725 3.229111 53.704001
0.252981 7.460031 1.28
15.890875 3.379753 32.555999
16.328821 4.198151 32.671
16.264921 4.618366 33.457
16.205 5.318062 34.524001
19.945327 3.46179 23.113002
4.758894 5.383206 42.216998
18.579762 5.717529 29.457
18.91934 5.517018 28.36
6.908595 3.228116 52.428
6.590728 4.462604 54.937003
0.915928 7.883873 1.372
0.305295 7.207703 1.734
11.117068 5.292671 45.461001
18.20782 2.172708 24.311
19.775098 2.304136 20.803
19.773284 2.66756 21.295001
19.979091 2.888259 21.115001
16.704857 5.576504 32.642001
19.747479 3.800051 22.966998
17.333688 5.56755 31.117
18.101263 5.486736 29.198001
3.681701 5.314683 44.610999
19.73525 4.904396 24.525001
18.977624 5.68391 27.379001
19.892546 5.153739 24.509002
4.896116 3.731985 56.722999
5.443314 3.388749 54.953002
6.899993 3.605613 51.853003
0.818905 7.941162 2.717
9.782863 2.879699 44.049998
10.923023 5.407249 44.920001
16.485412 2.434839 27.606002
17.107455 2.439959 26.113002
16.163567 3.389847 29.736999
15.593196 4.068857 31.999999
16.940625 5.447355 30.77
17.084344 5.724846 30.837001
17.569455 5.438401 29.296
19.85445 4.441463 22.442
0.640251 7.664169 3.626
19.760589 5.211526 23.736999
0.688171 3.176921 33.575
0.880402 3.425767 33.492
5.893489 3.102802 52.386001
5.038022 4.372899 56.238997
6.963894 3.185398 50.041999
5.267353 5.264151 56.994002
5.634083 5.007346 55.748
6.957458 4.205799 51.468001
10.508601 5.259405 44.631999
1.024122 3.703257 33.590999
0.581615 6.49095 3.095
16.006623 4.146832 30.104999
16.106806 4.802317 30.761001
15.675181 5.409467 32.631
19.885229 3.658322 20.204001
18.76222 5.770838 25.859
3.96627 3.214105 26.032001
1.163281 7.586838 4.508
0.827331 7.060501 4.459001
4.866507 5.08816 56.591002
5.888401 5.199401 54.343001
6.955645 4.569223 50.949
6.773363 5.019077 51.966002
13.202515 2.551469 33.388999
10.254284 5.06735 43.866
10.391215 5.358914 43.981002
16.013878 2.693137 26.929999
16.905628 2.49874 24.553
21.389539 1.330723 12.322
1.949407 7.827227 4.119
1.63979 7.677891 4.595
0.886257 6.290936 4.217999
0.777473 6.012948 4.071
19.244637 3.331999 20.192
20.412063 3.357306 17.471
17.111497 5.668552 28.521998
19.737883 4.107679 20.11
19.859425 4.790813 20.783
3.993951 4.667302 28.146998
4.112684 5.64399 29.295001
9.36926 2.298561 12.127999
5.2433 3.084106 51.871001
4.84661 3.690759 53.640998
1.756182 7.508511 5.032001
1.204009 7.502397 6.311
0.940561 6.178348 4.884
0.928799 5.843071 4.425
4.903256 4.724239 54.985999
6.929311 4.192223 49.493999
7.031308 4.484285 49.690001
6.551171 5.120079 51.739997
6.904325 4.891421 50.526999
6.854 5.283489 51.264998
4.609557 5.692823 28.246001
15.845991 2.68155 26.344001
5.148154 5.727084 27.033
19.380045 2.044201 17.081
16.156136 4.340378 27.999999
3.032393 7.811806 3.551
2.722776 7.66247 4.042001
2.219115 7.627711 5.141
1.93665 7.42208 5.453
14.712566 5.534988 33.066001
21.425645 1.903259 12.096
21.020353 2.887409 14.440999
16.839799 5.728328 28.327998
18.823313 5.644177 23.492
19.858782 5.727271 21.131999
9.102713 3.210851 14.127999
12.626642 1.371637 3.192
6.287433 5.738816 24.377002
3.436452 3.30551 55.523002
3.903364 3.70419 54.999
5.501421 3.052477 50.276999
1.380498 7.136486 7.242
1.031438 5.198675 5.11
6.437941 6.002232 24.442
15.835223 2.416144 25.11
7.788468 5.144392 19.998
19.021917 1.923509 16.929
19.749583 1.493843 14.617
16.03875 4.439888 27.504001
14.526305 5.705362 32.881999
22.169696 1.151892 8.387
16.000188 5.167233 28.620002
3.591353 7.803847 4.176
2.308354 7.514626 6.685
0.354853 1.853867 2.552
0.268246 1.170235 1.716
0.300839 0.02367 -0.136
3.875217 3.690614 23.102
16.943609 5.656965 27.111999
21.22616 3.108108 13.339
17.378395 5.762589 26.193
20.280458 4.42142 17.438001
18.296479 5.945192 24.275001
18.490523 5.830615 23.636001
20.320368 4.770273 17.865001
19.105777 5.849808 22.242999
8.432688 4.743867 17.933
7.239457 5.851051 22.344001
3.082655 4.470626 57.126998
7.168706 3.336227 45.929
7.846928 5.814448 20.867999
7.263914 3.642362 46.158999
1.483137 6.49209 8.151
6.915735 4.22037 47.813998
5.73608 5.299407 52.125999
7.156477 4.440572 47.568999
6.937446 5.254347 49.192
11.961592 3.254004 34.567
13.320782 4.967779 6.863999
15.986083 3.685888 25.665
13.372454 5.651908 7.717
13.419152 5.986687 8.095
13.64269 6.961883 8.964
1.919094 7.170747 9.335
2.543769 6.379149 6.710999
1.686954 6.573049 8.957
1.614918 5.93114 8.154
1.477987 5.639576 8.022
1.341055 5.348012 7.908
0.802397 2.364638 4.596
0.762487 2.015785 4.153001
0.662304 1.3603 3.398
21.763409 2.066172 9.728999
22.290243 1.765156 8.106
16.998909 5.614247 26.026
21.175835 3.500176 13.155999
19.396844 5.677941 20.451999
20.127671 5.961048 19.090999
4.778553 3.32833 50.506
7.294693 2.859221 43.947001
14.525839 7.144984 7.144
4.886872 5.045939 52.719001
2.948418 6.331457 6.752
1.357087 4.019984 6.915
0.875075 2.070089 5.061
0.823403 1.38596 4.127
0.721407 1.093898 3.912999
1.249059 0.359589 1.584
0.626198 0.787763 3.683999
7.164084 3.993204 45.881
5.887406 5.129531 50.538001
6.488089 5.107001 49.128001
7.083798 4.73512 47.177001
8.559028 5.273188 44.456
11.799674 3.661638 34.519999
15.789697 2.654398 23.748
15.87449 3.701454 25.011001
15.962911 4.021662 25.29
4.483683 3.72388 40.429999
17.692925 3.312163 20.158
22.805138 0.625701 4.320001
15.894388 5.098855 26.929999
2.989499 7.253344 9.150001
16.044895 5.362272 26.929999
1.997566 6.792255 10.756
1.992592 6.442905 10.214999
1.465696 3.794808 7.445001
1.145135 2.876901 6.755
0.99726 1.816766 5.477
1.307343 0.526481 2.788
0.79508 0.86922 4.476001
16.091593 5.697051 27.29
22.120542 2.116994 8.042001
16.713635 5.702171 25.815001
21.973195 2.566351 8.992999
17.384189 5.678646 24.223998
21.122702 4.185798 13.272
20.411773 5.300091 16.535001
4.691128 3.077992 49.374999
2.748052 5.020487 56.736999
4.915019 5.059515 51.752997
7.192231 4.006781 44.867
5.652634 5.328549 50.392001
7.038096 4.470211 45.931998
-1.231732 4.783642 55.300002
6.246529 5.320093 48.999
0.979528 1.062269 5.393001
6.489084 5.176871 48.212001
7.181815 4.747701 45.982001
6.930658 5.268421 47.326999
11.709087 2.698526 32.407001
7.88947 5.366583 45.162002
11.88312 3.632496 33.325
11.69405 4.096424 34.422999
11.936605 3.953202 33.652999
11.824194 4.402061 34.570998
15.799293 2.346771 22.290999
12.867798 5.547279 33.735
20.357873 1.023945 9.634
15.905798 4.427804 24.996001
22.01041 0.762808 5.404
4.962421 7.40695 6.689
4.311879 6.381927 6.64
3.728399 5.649462 6.884999
2.156675 6.678175 12.082999
1.341988 2.468769 7.589999
1.233203 2.190781 7.426
2.047766 0.501962 2.982
1.07854 1.14472 6.147
1.066777 0.809444 5.705001
23.360119 0.338261 1.6
23.150685 0.84441 2.83
22.417578 2.364347 6.716001
22.04804 2.914706 8.322
22.526363 2.642335 6.814
18.096465 5.64055 21.554
18.240185 5.91804 21.569999
18.69036 5.632093 20.079001
19.3591 5.971992 18.98
21.188945 4.91165 13.176
21.277366 5.231859 13.405999
20.402353 6.110882 16.734
5.003968 6.889215 6.724
4.505281 7.203806 8.331
2.327371 6.396207 12.167001
2.260309 6.103649 11.905
-3.32005 4.869285 44.197001
-0.70724 3.336559 33.151999
0.739667 3.357887 32.554999
0.79994 3.664519 32.867
1.517658 2.536152 8.183
1.940567 4.752448 57.173003
2.612934 4.365499 55.073997
6.610564 2.910892 43.580001
5.853466 5.199898 48.664001
7.126516 4.790419 45.089999
3.285364 6.927663 11.735999
3.46577 3.89212 6.735
3.959306 2.725015 24.177001
4.312459 2.496356 23.012
5.093611 2.387396 21.028998
2.937589 3.116938 6.768001
1.564003 1.864604 8.063001
1.594782 1.081462 6.783999
11.880488 4.429213 33.400001
12.308486 4.548911 32.596
11.841925 5.156558 34.531001
21.660065 0.697913 5.051999
23.384286 0.072357 0.117
15.912762 4.916894 24.595
1.863091 5.20081 32.72
16.149877 5.863943 25.415
2.11062 5.406938 32.456
17.956549 5.139376 20.103
22.869743 2.218141 4.363999
17.656881 5.68874 21.562999
17.849111 5.937586 21.481002
2.637983 6.615414 13.842
2.55635 6.281132 13.514001
2.388111 5.263218 12.381999
4.025082 4.890488 27.227
10.387816 1.193864 6.96
1.671793 2.072721 9.217999
2.035361 1.103142 6.874
22.166597 3.388231 7.692
18.415855 5.985423 20.169002
22.52572 3.578793 7.102
20.481001 6.235554 15.661
21.195091 5.834034 13.414001
20.908999 6.355251 14.808
21.310663 6.097949 13.464
4.691128 3.077992 47.222999
5.037493 2.863407 46.109
2.292902 4.957084 55.553
4.80442 5.144951 49.961001
7.296279 7.387695 5.240001
6.331498 6.870312 6.731999
3.990852 6.903641 12.207999
3.798621 6.654795 12.256999
3.507555 6.826662 13.192
2.606675 5.889064 13.865001
2.33562 5.012383 13.224999
4.014667 5.631409 28.325
12.305086 0.38386 1.32
9.941796 2.262455 9.582999
9.169775 3.503409 13.19
