ply
format ascii 1.0
comment Saved by Easy3D (liangliang.nan@gmail.com)
element vertex 1199
property float x
property float y
property float z
end_header
6.83381 5.82887 25.841
7.09088 2.77826 39.73
4.67943 5.69183 20.112
0.987725 5.07351 45.2
0.611223 5.13477 45.09
11.0904 6.85846 2.717
4.54407 1.58456 12.518
15.0576 7.19332 7.28
19.0042 4.11812 41.882
11.8715 3.80038 55.864
12.7029 0.350241 2.753
19.1755 5.34565 38.454
23.2941 0.115573 0.887
1.3723 3.12525 33.347
24.1079 4.75827 44.798
25.7196 4.07841 54.968
4.1207 0.807889 4.956
4.07342 4.35868 30.138
25.7712 4.76254 55.772
7.13441 2.40027 20.12
4.3818 0.98587 5.396
23.7139 4.56821 32.487
22.8623 0.219559 2.664
16.5147 3.02145 56.737
18.0032 2.52504 20.142
1.58162 5.06505 43.823
10.5097 2.88333 32.581
9.44417 5.59603 12.19
3.3557 5.48705 33.432
8.18814 4.74735 18.654
21.4345 4.97804 45.355
17.5161 2.67175 37.388
7.32237 4.31242 43.975
19.7794 0.640831 4.468
21.5422 7.6321 2.818
18.7932 5.49086 41.766
4.75304 2.51804 20.139
12.6241 5.11747 32.469
5.93802 2.79468 33.561
11.8793 3.85618 45.802
4.12328 5.40623 43.709
16.2871 4.21272 36.524
18.1712 3.03979 56.964
7.43894 4.6462 20.096
3.99623 2.86426 26.791
7.7595 5.56411 34.387
20.9357 2.34352 14.813
16.729 2.36149 23.364
7.49424 4.60348 33.584
3.88019 4.03996 22.796
4.31188 6.38193 6.64
14.4325 1.08036 8.37
20.1142 3.54325 18.454
16.602 5.71774 20.067
15.7094 3.39631 25.648
6.43671 2.48009 29.424
16.7749 6.07867 17.862
7.0381 4.47021 45.932
3.67111 5.55244 34.257
16.6888 3.95542 47.751
16.1282 4.82997 32.952
19.7733 2.66756 21.295
2.15668 6.67817 12.083
15.9629 4.02166 25.29
22.3901 1.41431 6.86
3.99395 4.6673 28.147
1.94554 5.1018 45.293
26.0649 3.79396 44.464
10.0155 2.03778 9.305
11.4076 3.61131 32.513
5.15786 2.97351 20.191
13.513 5.21662 8.067
4.52078 4.36629 40.197
9.95754 2.87721 8.058
4.88073 4.12356 53.326
6.89999 3.60561 51.853
2.84443 5.89966 14.483
21.6491 5.3244 9.221
17.7489 5.2821 42.959
14.9324 1.33881 11.593
19.8733 2.81988 32.41
18.3305 3.42888 57.83
18.3909 6.68462 6.729
18.1507 2.57885 33.706
-6.21404 4.32347 43.808
6.08221 1.63255 13.481
11.8419 5.15656 34.531
7.42022 3.82184 36.615
17.013 4.14648 55.084
15.8253 4.66656 23.249
10.171 5.59966 33.043
16.1024 5.96246 18.361
7.3253 1.57292 14.22
11.694 4.09642 34.423
1.09604 6.79112 5.475
5.11023 5.51797 40.738
17.5695 5.4384 29.296
9.06444 1.99541 13.467
4.41136 5.02476 56.577
11.9757 4.73535 45.833
4.35073 3.7118 40.113
7.65265 2.47675 26.954
4.12474 4.03648 27.716
19.7606 5.21153 23.737
17.485 2.44856 26.654
19.8852 3.65832 25.603
19.7551 6.3018 16.352
16.0449 5.36227 26.93
-3.94244 3.85784 56.984
6.55814 5.60917 34.072
18.5618 1.51076 13.481
18.9029 2.88961 44.107
11.1028 6.25728 3
5.72531 5.034 52.621
0.867883 6.4729 5.281
11.8202 4.12258 45.803
4.29479 4.69097 20.118
10.6593 6.02599 4.86
6.34917 4.6757 57.979
-5.77446 4.27528 56.692
19.0925 3.93517 47.737
25.4257 4.54383 32.688
25.0841 4.6046 32.688
26.8025 4.06299 55.194
6.75428 3.18838 54.055
6.37187 5.77954 26.891
17.6624 2.15252 21.449
17.0697 2.73401 20.12
5.23558 5.97742 21.079
15.7156 4.3187 20.325
25.0876 3.37459 32.621
5.26431 2.10543 18.359
25.6838 4.5122 32.752
8.5441 4.22514 55.141
7.855 3.92746 22.803
22.5713 6.28965 5.412
3.41527 3.78102 18.403
7.68079 2.49032 28.034
17.7802 3.05934 48.646
0.322965 5.01309 44.812
4.13767 4.94479 29.579
2.41169 0.53871 4.079
21.805 4.49755 57.084
4.96985 6.45642 13.807
0.989363 4.20692 55.117
0.515424 0.370036 0.802999
3.76924 3.11907 45.668
16.0086 4.28657 25.475
17.8426 4.00887 59.011
18.2959 4.4357 58.454
11.9532 4.13467 56.159
3.04438 3.25519 32.56
11.0184 6.21655 3.143
14.2984 0.495246 2.905
12.3246 0.774934 2.74
-0.510211 3.43159 33.036
18.8932 5.64318 29.732
6.28158 2.87365 40.949
15.0191 2.5256 33.457
1.99364 1.11771 8.092
16.4997 4.41935 38.561
6.91574 4.22037 47.814
15.9058 4.4278 24.996
4.75889 5.38321 42.217
7.20183 3.69915 40.014
11.9616 3.254 34.567
16.3751 5.97255 18.696
6.24273 5.54378 32.58
18.9605 3.99296 53.373
5.80741 3.92866 32.461
17.7461 2.62654 20.042
7.23132 4.78893 41.491
17.1639 2.97027 55.198
22.4055 1.02274 6.838
0.303886 3.18239 45.071
16.4055 4.18308 36.517
7.69987 4.32102 25.476
4.55952 4.14211 45.761
8.9934 1.42337 11.29
7.12247 1.56183 12.455
1.93957 4.68258 32.562
13.6944 2.25095 9.51
12.8534 6.00872 4.812
19.445 4.64297 38.006
10.0022 3.07225 45.791
10.3765 7.76314 3.609
20.8859 1.29596 11.366
22.7006 4.07947 55.058
20.0236 2.58013 33.744
-0.397094 4.99539 43.857
-0.725086 5.02801 43.856
18.6613 3.1027 49.79
19.7139 4.87675 23.377
14.3027 1.78105 13.275
17.4035 2.61744 34.662
4.68516 2.65877 28.294
19.0703 4.34081 49.366
7.69607 4.5447 29.857
5.61208 5.91615 28.842
19.9296 2.84703 43.779
19.111 4.25637 40.284
16.7956 4.09367 47.805
3.05767 5.16982 32.514
3.84941 4.82311 24.807
22.4615 2.99268 32.519
19.5405 3.00632 34.504
0.581615 6.49095 3.095
19.0832 2.30001 20.17
4.49744 4.1989 45.764
5.33623 5.19329 49.069
19.3364 4.86814 37.538
2.91202 7.70171 3.599
2.17704 6.63595 6.747
3.96627 3.2141 26.032
16.4333 6.13944 17.886
-0.933701 5.10087 44.943
0.827331 7.0605 4.459
22.6342 5.79957 4.564
18.985 1.78427 16.965
16.3164 4.79933 39.495
4.86651 5.08816 56.591
4.31697 4.28533 36.5
0.721407 1.0939 3.913
9.6687 6.64109 6.779
16.4805 5.0346 39.429
4.28455 5.93506 22.965
6.14465 2.58208 20.08
15.4381 7.41153 4.222
1.58513 6.78415 8.65
13.4948 2.95264 8.21
16.4411 6.19524 6.742
-1.02745 3.42498 55.765
19.9081 5.26533 45.597
11.7629 4.02556 44.932
11.7997 3.66164 34.52
11.8751 0.124423 0.0539999
4.42458 3.99028 38.276
5.06084 3.0308 20.139
13.8645 5.85455 9.545
5.00397 6.88921 6.724
7.57956 7.16003 7.956
22.683 3.82814 33.108
19.2803 5.34416 37.338
13.8296 5.85505 9.544
5.33734 2.81721 37.101
7.53895 4.79852 35.892
2.34826 7.86348 4.212
4.93948 2.85083 42.31
27.6089 3.758 55.623
4.43634 4.32556 38.407
5.80215 5.5221 41.024
19.2379 6.29519 14.332
14.0733 6.28486 10.39
18.1186 5.23491 45.125
6.78506 2.40524 23.381
4.01982 6.48392 14.736
5.00958 6.30211 17.244
26.0318 3.43103 56.194
21.4063 4.96446 12.394
-2.18756 4.89509 56.179
5.5693 2.91174 42.949
6.79764 2.30722 24.665
6.48422 2.38157 24.582
4.557 2.49287 24.813
23.0925 6.57574 2.737
20.1434 3.62669 17.587
21.97 7.24864 6.344
9.3475 6.65965 13.045
8.58138 5.37071 16.817
5.8008 4.4459 20.164
7.3545 4.60547 37.912
3.99922 3.07387 24.477
15.5164 3.58076 20.444
15.3051 4.45033 18.132
6.3315 6.87031 6.732
16.7908 4.24748 47.931
6.62016 2.60327 26.071
5.29064 2.48243 26.776
3.80816 3.39806 24.71
7.69057 2.68586 26.478
8.2373 3.78225 18.314
5.06365 2.73724 27.135
5.41762 2.07529 17.909
23.4014 4.71242 55.068
3.76971 1.67945 12.029
18.2021 5.20576 47.13
17.2968 5.42831 37.07
1.12331 4.28887 55.066
5.44612 3.0952 51.93
7.11247 6.25819 17.882
-2.06456 4.20847 55.001
16.3935 3.34464 39.708
16.45 3.87496 38.231
22.2458 5.02239 56.289
4.60768 3.10713 48.581
16.6664 3.8579 51.476
16.0334 3.08421 24.569
7.44807 5.7782 20.075
6.00497 5.53319 37.396
18.4117 5.20278 44.428
16.4698 2.32325 27.376
6.61056 2.91089 43.58
15.625 6.3047 16.797
4.25915 2.67881 30.445
0.300839 0.02367 -0.136
23.1327 4.98181 33.382
16.2554 2.48004 27.978
19.238 3.84924 38.122
6.60658 2.63141 30.799
20.3204 4.77027 17.865
16.659 4.80843 47.045
16.7474 5.12864 47.291
15.9655 3.22494 27.136
8.24309 3.6983 55.107
3.34551 1.33607 9.439
18.3768 5.20328 49.061
12.3807 0.298922 0.876
15.9387 1.33845 12.179
19.0143 2.37088 24.83
19.8956 2.9174 23.517
9.98679 0.514709 4.151
9.65301 0.631276 4.936
14.3421 0.620415 5.407
22.4569 6.59877 7.119
19.606 7.11458 8.681
8.85348 0.922198 7.175
19.7288 5.9248 6.745
17.3271 0.689726 6.242
8.42168 1.02618 8.113
18.4925 3.02124 56.915
4.45753 3.85004 41.728
15.6512 6.17853 16.697
10.1405 1.4909 7.491
8.70895 1.078 9.033
8.04418 1.01758 9.377
2.47015 1.20877 10.362
21.5563 0.769275 6.779
4.54331 4.96697 56.915
11.6158 4.97808 43.806
15.8729 4.56804 23.107
9.10979 1.25399 9.551
18.2078 2.17271 24.311
9.66975 1.3159 10.3
21.9707 0.917119 8.336
19.7353 4.9044 24.525
18.9776 5.68391 27.379
11.6235 5.03388 55.16
4.38982 4.49394 41.774
6.70701 6.73917 6.777
-6.72449 4.30278 57.117
2.56378 5.3306 14.252
5.09045 1.67462 13.66
7.99006 1.63333 13.859
-1.94454 3.31225 44.607
21.6059 1.31366 11.087
19.8545 4.44146 22.442
3.03806 1.82964 15.583
2.72564 1.97385 15.287
20.5938 1.39796 12.126
10.8028 5.80031 4.254
0.880402 3.42577 33.492
10.7048 5.78773 4.411
-5.35424 4.33918 43.723
5.27905 2.65032 26.917
10.7126 0.448466 2.443
11.0457 6.66342 2.958
26.3697 4.09711 55.072
2.68052 6.16755 6.731
20.3224 4.91001 55.694
19.3005 4.79877 56.433
17.8087 4.07924 59.024
13.4926 5.25884 8.317
12.9496 6.38472 5.397
4.96025 6.76405 6.76
4.18232 2.19072 19.537
0.575645 6.07173 3.54
18.7336 7.19688 7.758
14.5444 7.46619 2.941
6.95564 4.56922 50.949
10.4444 7.62241 3.843
5.51084 2.24169 20.098
5.91257 4.9335 20.216
23.3382 7.14529 1.591
16.9064 2.06545 17.895
14.4738 5.45453 34.489
10.2318 7.41578 5.463
10.8287 2.22187 4.804
7.47206 5.00913 34.255
3.83484 4.78138 22.293
19.3475 6.13988 6.822
20.4035 3.7348 18.044
5.86189 4.31924 20.189
19.868 4.41332 20.241
4.75029 5.7607 24.911
5.76516 2.43374 21.471
20.6195 2.71142 16.783
5.86154 3.31291 20.114
4.73548 2.2667 23.313
3.35652 5.05375 43.929
22.0084 6.01813 8.224
12.791 5.05918 5.12
6.92931 4.19222 49.494
27.613 4.54064 55.659
-5.0352 3.67772 57.102
4.1499 3.84045 30.371
-3.58595 4.84512 55.512
18.3553 2.22651 21.039
18.5953 2.88001 20.13
5.85265 5.63319 29.043
14.7126 5.53499 33.066
18.7526 3.12935 20.098
16.0808 5.43164 29.656
18.6865 2.90666 20.112
16.2534 2.3403 22.573
16.6254 5.88513 18.954
5.22294 3.12633 32.493
24.0932 4.21339 57.09
20.2308 3.87703 17.92
17.3267 2.12935 23.758
6.92779 2.61286 25.907
4.6064 4.98005 20.15
19.8298 6.14699 14.859
21.2903 6.14017 12.272
22.2799 5.45519 8.071
4.24645 5.22278 56.376
3.77901 3.31461 25.954
14.6032 0.798396 7.227
21.1651 6.18388 13.207
16.4407 2.2398 25.721
6.07121 6.25904 18.177
5.751 6.34746 18.029
4.0204 2.59835 28.839
3.81512 3.88715 25.345
3.9105 4.69644 23.131
20.2671 4.95273 17.893
17.2316 2.32638 26.193
15.94 2.41465 26.422
14.5263 5.70536 32.882
4.55145 6.02909 20.256
3.80968 4.97742 23.34
20.3616 6.19532 15.304
19.116 4.60572 20.11
15.8977 3.36568 24.686
16.2878 6.22538 16.764
7.57043 6.02804 20.258
4.02953 3.73035 27.574
7.67319 2.93769 28.654
4.40041 4.25619 38.23
4.48655 6.37944 14.342
19.8095 6.18921 16.48
3.15007 5.76951 16.555
6.00514 6.03635 21.68
17.4636 2.42091 28.777
19.6087 3.87191 25.196
19.5512 5.71767 20.21
18.0416 4.24365 58.831
4.06844 4.00933 30.182
3.89909 5.3675 26.492
7.26391 3.64236 46.159
0.138984 3.38042 33.003
3.8744 4.12391 30.252
17.5815 3.83089 58.514
18.7286 3.89842 55.875
8.33081 2.00586 16.775
6.45327 2.66155 34.451
7.15648 4.44057 47.569
4.00454 4.42954 30.367
19.523 5.7041 22.802
17.488 5.60728 23.835
14.4554 2.68737 32.97
13.1881 3.01291 32.494
15.9779 2.62376 24.173
18.9157 3.29475 52.521
15.8288 3.43654 25.73
9.23648 2.78964 34.462
7.57289 4.72816 28.284
15.9861 3.68589 25.665
16.5002 2.97973 56.787
7.65271 5.42586 29.12
7.92189 3.71685 20.25
6.99965 2.75161 36.334
5.32177 2.70561 37.007
1.34106 5.34801 7.908
18.6809 6.44288 13.91
11.8725 3.87025 32.508
11.5377 3.91695 32.508
18.9394 4.46847 50.92
17.1979 2.89991 51.858
17.8191 3.33832 32.529
25.3796 3.2726 32.824
15.1726 2.99863 55.802
16.4452 4.02877 54.163
20.0057 6.71754 12.085
17.7663 5.03027 52.393
-5.2155 4.26732 56.292
3.82671 3.71926 22.452
0.212367 5.09852 44.979
22.7827 2.97413 33.399
22.4401 2.96503 33.58
22.3251 7.15972 7.216
19.4606 4.75456 30.91
18.1798 2.6623 37.109
17.2435 5.61077 29.417
16.9358 5.60117 29.582
11.8961 4.54081 34.306
4.48368 3.72388 40.43
19.4791 5.07577 31.009
15.0455 5.85171 6.675
16.7966 4.16354 49.563
4.72308 2.86788 38.626
15.4979 6.20867 16.118
17.5462 2.82506 45.035
19.3642 3.87539 42.133
18.4874 5.11784 45.97
14.4996 1.37292 11.477
16.4739 5.55184 32.783
19.1352 3.99047 41.98
22.7295 3.65975 32.947
13.3974 4.95271 56.019
17.554 2.88086 43.264
2.46108 3.02588 45.368
1.49946 3.22128 45.138
-1.52596 4.24273 55.136
7.44591 5.13529 37.56
-5.16499 4.37841 43.827
-3.16428 3.53927 44.384
11.9394 3.65965 56.669
8.37189 2.92774 44.668
11.8831 3.6325 33.325
4.41065 3.0121 45.751
11.8242 4.40206 34.571
23.2644 6.86681 2.736
20.274 5.44182 34.279
17.9673 5.40478 35.313
17.2813 2.87077 42.53
4.39292 2.2576 18.926
4.30655 5.02625 41.235
7.75336 4.64173 25.804
19.4087 3.56727 36.628
6.67546 2.56055 20.134
3.98471 5.98126 22.774
7.43151 5.59673 27.985
3.94263 4.9895 43.795
7.19685 3.3498 20.084
18.2402 5.91804 21.57
16.0416 4.14633 42.964
18.3759 2.68746 35.812
8.35802 4.89868 43.784
6.45514 5.24724 43.473
16.4222 4.86771 43.454
4.76732 4.50254 46.014
18.4506 5.48176 39.518
4.62629 6.37745 6.789
17.9673 2.45567 35.483
4.73309 6.5157 17.014
23.6716 3.07329 44.945
17.1561 2.91448 48.126
15.4013 4.82634 43.803
-0.510853 4.36805 43.773
2.35054 6.06043 12.572
2.13976 5.49038 12.195
3.8315 3.56544 25.702
-6.54999 3.79713 43.774
14.6232 5.14491 45.804
16.457 4.36405 38.576
-2.92933 3.84341 55.269
13.7066 6.54167 9.543
1.07977 4.66687 32.664
21.3724 5.03483 44.256
18.9557 4.14677 47.749
3.77702 3.17487 56.017
19.4594 4.18153 30.233
-2.70017 4.2315 55.132
-2.98644 4.24955 55.198
19.6798 4.44395 30.07
26.8105 4.62195 43.928
24.7988 4.69253 44.666
23.4587 4.80945 44.961
18.1295 3.05436 52.031
16.907 3.57494 51.113
17.1105 5.59868 36.829
8.70866 3.02079 32.467
11.8676 3.5209 45.392
12.6454 5.14512 45.819
7.43233 5.16344 35.675
16.2765 4.45048 36.261
27.3782 4.73966 44.323
19.6486 4.22076 27.949
7.60261 0.926032 8.753
11.9444 4.009 44.883
16.5042 6.20832 6.754
11.3783 3.0247 56.735
-0.894962 4.87668 55.834
0 0 0
9.15591 5.47434 13.444
0.00994886 0.6987 0.922
13.9907 0.48565 3.035
23.5154 0.447865 0.868
6.66996 0.701706 5.56
22.541 0.238109 2.762
21.8501 0.303855 2.811
6.4284 0.914798 6.028
1.9082 1.00712 6.881
22.8012 0.34622 3.207
15.6862 0.782976 4.504
4.1664 1.0728 8.095
18.6411 0.69897 5.767
15.3223 0.746227 6.75
9.40566 0.928312 8.031
9.45434 1.40283 6.734
8.74967 0.99356 8.112
2.88158 1.147 9.245
7.75991 1.17538 9.049
16.8071 0.976668 7.878
14.7751 1.08946 8.239
10.16 1.88197 7.485
9.42421 1.24952 9.486
21.4574 1.18999 6.772
14.5169 1.12109 9.348
2.94964 1.50943 11.629
2.62943 1.59785 11.466
21.6359 0.963817 8.352
21.3508 1.5549 6.844
10.0496 2.47057 8.075
7.96472 1.3262 11.831
3.60832 3.59658 6.795
22.4581 1.77674 6.827
9.14771 1.4631 12.159
6.7867 1.53865 12.585
6.47907 1.52906 12.717
14.2822 1.32011 11.871
7.06718 1.60454 13.299
7.65428 1.61016 13.99
6.65673 1.73618 13.99
3.65911 1.76489 14.729
4.23071 4.60802 38.022
3.36804 1.93675 15.189
7.52836 5.03628 30.972
19.894 3.78399 6.804
14.5463 1.7077 14.35
14.3219 1.1658 9.478
8.62965 1.88979 15.729
7.60776 1.77855 16.353
4.65286 1.86255 16.976
16.0782 0.8333 4.87
8.56301 5.55267 6.779
1.31507 5.97734 7.568
12.3754 7.28742 2.006
8.5386 2.3663 16.67
4.43804 6.40808 6.764
20.8949 4.87391 6.725
16.1349 1.86678 16.715
11.0255 7.2088 3.725
8.1659 2.20388 18.372
6.51717 2.24133 18.782
2.43446 4.59167 13.436
23.04 6.32491 2.973
13.3337 5.87609 7.697
10.7431 7.00317 5.451
7.83791 2.2365 19.409
7.16736 2.26003 19.572
20.5416 7.54851 4.004
5.05213 5.85424 23.545
22.8857 6.28517 4.167
18.9015 1.81341 17.862
16.1199 6.21379 6.84
14.1462 6.49348 6.727
5.44595 2.59203 20.16
2.12437 5.88195 11.993
19.1565 6.46407 6.752
22.8937 6.84413 3.591
22.3887 5.73318 6.789
22.3107 7.62116 1.672
19.0137 6.25645 6.674
10.2374 6.82867 8.086
5.81385 2.90826 20.126
5.42939 2.41057 21.603
4.94305 7.51904 7.742
15.0272 6.03368 15.9
22.0451 5.65421 8.188
20.2983 2.72997 16.881
19.8817 7.33428 4.4
18.7324 6.62385 6.761
6.84551 3.21504 20.114
2.19062 6.60781 12.094
20.1769 2.55 18.46
20.5203 7.52086 4.665
19.4791 2.12665 19.869
13.7775 6.61054 9.571
7.72831 2.39181 23.119
7.43625 2.49381 22.955
5.81168 2.26536 24.038
21.8744 5.93618 9.556
20.0965 2.78875 18.84
18.992 2.27336 20.645
18.6562 2.25018 20.826
18.0527 2.56627 20.168
17.7247 2.59889 20.219
17.4035 2.61744 20.317
17.3314 7.37059 7.326
7.63761 3.87465 20.104
5.69102 4.09804 20.121
4.88599 2.53012 24.632
3.60715 3.02354 23.647
2.92688 5.80064 16.201
1.09516 4.2753 43.773
20.0733 3.12452 19.03
19.6206 7.1563 8.156
17.6822 3.04676 20.129
16.6846 3.17278 20.113
15.1129 4.20149 17.866
7.58178 2.40787 25.248
3.73448 3.62273 23.066
3.82507 4.58585 20.393
4.18203 4.1335 36.428
18.8031 3.24045 20.165
4.30439 4.38335 36.51
7.16724 4.70598 20.15
6.31253 2.59367 26.203
7.67055 3.73441 27.705
7.77934 4.0124 27.836
21.2504 5.79132 13.258
6.2515 5.66944 33.838
6.06922 6.1193 17.556
4.72788 2.71407 27.314
17.0254 6.49441 13.928
7.75382 3.2021 26.033
8.08867 6.10452 17.979
7.03839 2.52743 28.132
5.64578 2.39351 28.887
4.09243 3.24026 27.033
15.7707 3.77282 22.781
8.12939 6.02008 19.206
5.82848 5.8991 20.223
4.86586 6.02462 20.19
7.65317 3.98624 30.244
19.77 4.40073 20.421
18.8348 2.52718 25.916
18.4709 2.49043 26.145
17.8062 2.43001 26.606
16.8124 2.33235 27.212
15.6641 4.13773 22.669
7.59969 3.66553 29.9
7.53924 2.85574 28.952
5.88278 5.78651 21.391
7.5462 3.34483 29.539
4.44711 4.59097 38.589
16.9658 5.25132 20.138
15.9265 2.4428 28.224
15.8349 4.35893 22.959
3.78217 4.02738 27.798
3.86978 4.78089 25.748
3.9905 5.89731 22.664
18.1332 2.32752 28.776
16.0522 3.90858 25.25
15.7164 3.8854 25.398
7.20353 5.78168 23.085
-5.48257 3.67012 57.024
4.14147 4.72111 28.197
16.0036 3.93722 27.711
7.25279 2.37063 25.578
8.84939 3.08867 32.564
5.18203 2.7076 34.746
4.84725 2.7543 34.747
19.6886 4.56962 25.819
17.8082 5.51886 23.966
12.5321 3.07816 32.593
6.5737 5.72076 32.088
5.3577 2.77499 35.741
4.68615 2.72864 36.102
19.715 2.50067 32.514
9.78222 3.81616 32.514
9.45423 3.84878 32.546
4.7095 2.89603 36.679
1.27001 4.77597 32.529
18.4845 2.46228 33.903
17.4666 2.63052 33.837
11.7646 3.15897 34.476
-2.903 4.22041 55.133
20.3672 2.6591 33.383
19.5612 3.97043 30.135
19.3747 6.08359 6.789
22.803 2.93191 32.536
21.7977 3.00213 32.766
11.8919 3.75816 34.503
4.39643 3.97671 36.358
22.0694 2.94236 33.727
11.8542 4.05221 34.629
5.10537 2.72267 40.534
7.78378 2.85226 24.074
17.586 5.61986 29.27
5.5528 5.67939 33.438
6.00795 5.74279 32.454
8.17293 5.64208 32.551
18.7941 2.61162 38.029
18.4671 2.71411 37.849
18.7531 4.63884 32.502
16.2286 3.54267 36.471
16.0777 4.71887 33.338
15.7818 5.04455 32.503
12.1477 5.52958 32.536
10.8493 5.63193 32.699
6.5232 5.60967 34.225
21.6663 4.56941 32.5
19.3647 5.38488 31.188
9.88954 5.4639 34.502
6.5902 2.95311 42.473
8.13121 5.65665 32.563
23.3791 4.6149 32.504
19.2099 3.83566 36.342
18.4865 5.55113 31.946
3.37817 3.13862 43.872
-0.429749 3.19284 44.889
-0.764529 3.23954 44.823
-2.66062 3.57403 44.447
-3.91529 3.80154 44.152
25.7605 4.49714 32.638
16.2222 4.56307 36.427
15.7111 5.47884 34.164
14.0071 5.55901 34.541
6.73094 3.02099 44.088
1.84781 3.14643 45.269
-4.87194 4.34629 43.81
-5.49299 4.41104 43.794
24.1934 4.86887 33.267
20.4613 5.34132 33.514
16.2318 4.25544 38.155
16.3719 5.25978 35.367
0.267666 5.05581 43.855
10.3855 2.99691 43.832
3.43446 3.16577 45.62
4.38766 3.85104 32.493
17.3181 5.45596 35.444
16.2106 4.73095 37.839
12.4409 3.0515 43.843
7.84406 3.15889 23.459
-4.84262 4.9329 44.123
5.51787 5.67989 32.544
6.00795 5.74279 31.509
10.9998 2.94623 45.774
7.13477 3.40659 45.856
5.73608 5.29941 41.116
-0.0826792 4.99091 43.791
-1.0395 5.03249 43.921
20.2712 2.78626 43.812
19.1811 4.75854 38.858
14.2284 2.94219 45.797
12.6906 3.90053 43.745
6.30493 3.04104 48.338
5.65474 3.02234 48.617
3.60106 5.05027 43.696
3.2585 5.04117 43.812
-0.612498 5.08231 44.894
19.8044 2.89075 44.917
19.0665 4.5645 40.651
11.723 3.67671 45.917
4.40024 3.75302 38.562
7.70883 4.94985 43.817
4.70307 3.91643 47.655
5.44115 2.74584 34.66
21.0281 2.94321 45.393
16.9815 2.91697 47.115
16.382 3.51253 45.721
4.61201 4.39294 47.575
23.3504 3.09184 45.026
17.8693 5.3922 41.122
14.0612 4.94326 43.779
18.6681 3.08862 47.97
17.2742 4.82762 43.787
9.46634 5.19038 45.754
8.21746 5.33396 45.821
4.87013 4.36131 49.609
-0.53584 5.06725 44.855
16.6313 3.35523 48.996
12.2272 5.22096 45.584
3.9383 3.70369 32.461
25.9194 3.87989 44.459
4.08881 3.96711 32.494
17.9674 2.95883 50.462
15.6247 5.29837 45.001
5.76253 3.23046 54.285
4.8905 4.31909 51.594
7.77817 3.43936 23.131
25.8409 4.25838 44.354
19.0258 4.64894 46.289
4.61517 5.10572 50.473
0.0273905 3.39598 56.657
-0.271459 3.51205 56.411
-0.56352 3.61405 56.231
-3.65138 3.68597 56.92
-3.95901 3.67637 57.035
19.8227 5.15473 45.618
18.909 3.81199 49.637
16.6432 4.19367 49.538
5.68587 3.24553 56.232
-6.31884 4.32496 56.89
16.783 4.19168 51.421
12.9853 3.00182 56.21
-1.21517 4.96511 55.719
9.88398 0.655941 5.432
15.6899 3.00524 56.113
10.1647 4.17411 55.08
5.998 5.04409 54.195
3.37009 5.02561 55.163
16.6139 3.60706 55.13
7.37984 4.9126 55.082
16.7497 6.27471 14.287
17.85 3.05834 57.08
15.4059 4.16936 55.029
-0.414184 3.30443 33.223
3.91068 5.19961 26.042
24.3617 3.44084 55.092
20.1018 4.14443 55.107
26.1909 3.31695 56.426
17.8464 3.78519 58.951
28.3307 3.41227 56.007
26.7462 4.03584 55.089
19.9321 4.49626 56.99
17.6032 4.86487 56.99
7.93113 2.4029 20.408
29.0518 3.49984 56.346
28.7248 3.60234 56.232
25.6023 4.68109 55.771
14.3411 0.550545 2.718
7.71398 5.80236 25.852
14.114 6.20042 11.457
7.49787 3.87664 32.534
5.04616 5.43502 40.536
4.5425 5.40026 41.667
29.2915 3.65018 56.501
28.8162 4.13216 56.204
4.49943 4.33864 40.223
27.3527 3.92937 55.477
-1.39084 4.89772 44.765
4.05153 2.82154 29.108
8.11938 2.37227 18.976
26.4745 4.09562 55.121
7.75716 4.41804 22.813
7.79028 4.78097 23.288
23.7246 4.83361 56.601
4.36928 4.033 40.059
1.66056 3.24694 45.207
21.4575 4.1391 55.095
25.8072 4.83191 44.531
19.1067 2.97056 57.136
18.7719 3.01726 57.078
18.6857 3.33996 56.895
5.42939 2.41057 24.104
17.6957 3.01861 57.087
18.4565 2.95187 55.186
18.991 5.1526 56.941
8.64902 1.7777 15.66
17.2901 2.99643 57.089
18.0577 2.91562 55.121
18.9701 3.68533 51.853
18.9574 3.28018 50.252
18.8907 3.99395 51.4
18.4379 5.07661 52.937
25.8629 3.34958 32.836
18.5067 5.00575 51.629
21.1065 5.01066 45.432
18.5661 2.79656 47.408
16.8732 4.14847 53.294
19.019 4.66301 48.884
7.80585 4.89256 22.251
24.8332 3.18254 32.981
14.865 2.98903 55.467
19.0645 4.42476 47.434
25.2364 4.5046 32.761
14.5224 2.97993 55.301
16.8033 4.14946 51.433
24.9094 4.60709 32.694
19.0109 3.60089 43.514
17.056 5.20811 49.479
19.0713 4.41068 43.593
23.7837 4.56721 32.56
12.2798 3.02584 56.932
18.0421 2.80403 42.914
19.2508 4.25438 42.047
19.0617 4.71831 43.178
22.8996 4.31424 33.456
16.2626 6.42141 16.674
16.084 6.14442 16.723
18.4552 4.82478 43.805
19.3266 4.67261 41.526
19.4572 3.53862 38.636
19.1508 4.10206 40.144
17.811 5.22531 44.883
19.2438 3.76529 38.338
19.4293 4.02821 38.257
19.3354 4.79827 39.552
4.49492 2.54967 25.168
18.4254 2.72868 37.809
17.2171 5.23377 44.155
19.2442 4.77162 38.695
21.487 5.22887 33.973
4.09823 3.15632 26.988
8.35696 1.87969 15.216
18.1595 2.70452 37.356
19.3079 3.84824 36.209
16.484 3.80459 41.845
16.5578 4.08308 42.059
19.5619 3.03397 33.452
19.4091 4.5736 35.977
18.1631 1.97767 34.318
13.5035 3.0783 45.819
16.4649 4.92301 41.393
19.5275 4.54396 33.59
7.81246 4.37532 20.134
7.94939 4.66689 20.281
16.6068 2.61481 36.778
16.4522 4.51786 39.812
17.387 5.38509 38.828
7.72275 5.92803 22.626
8.31594 3.90692 57.167
9.77298 5.13011 55.447
16.3967 4.05742 38.297
19.4864 3.62207 30.329
19.665 3.89906 30.314
19.1432 4.54943 32.444
19.4606 4.75456 32.002
19.5055 5.45276 32.84
16.3497 2.71631 35.544
16.2839 3.49995 36.79
16.3755 4.53293 37.988
19.7192 3.28331 28.347
18.7385 4.59712 32.48
19.4993 4.53038 30.578
16.255 3.91967 36.501
8.24742 4.98411 55.984
12.8459 4.01014 43.786
16.0843 4.20163 36.359
7.50302 4.72915 34.839
19.7793 3.08678 26.064
19.6536 4.57011 28.391
-0.0844306 8.30345 -0.0150003
8.14162 4.91573 55.146
11.8492 3.70286 44.669
11.8456 4.42971 45.686
7.88116 3.8013 32.625
19.3144 5.77695 29.915
5.77845 4.34838 58.881
11.8779 5.22593 45.75
7.67535 3.5806 32.806
19.6023 4.89231 27.027
19.8013 5.12708 26.864
16.2649 4.61837 33.457
19.9453 3.46179 23.113
17.6617 5.53493 31.441
19.3124 5.63721 27.622
6.80332 4.66923 54.724
16.6309 2.34891 28.263
17.2598 2.33995 26.771
15.7936 5.37983 34.543
19.9791 2.88826 21.115
19.7475 3.80005 22.967
19.8925 5.15374 24.509
19.6132 5.66088 25.82
16.4854 2.43484 27.606
17.8102 5.6586 28.985
0.688171 3.17692 33.575
6.95746 4.2058 51.468
1.02412 3.70326 33.591
16.693 2.29211 25.826
16.0066 4.14683 30.105
16.1154 4.42482 30.221
15.3356 5.60998 33.714
19.8852 3.65832 20.204
19.819 5.88158 23.499
4.6676 2.40744 23.245
5.8884 5.1994 54.343
6.77336 5.01908 51.966
15.9604 2.37243 26.618
19.2446 3.332 20.192
16.2148 5.5136 30.456
19.5738 3.87241 20.175
20.4121 3.35731 17.471
19.7379 4.10768 20.11
19.5861 5.71718 22.735
9.49127 1.54207 10.767
2.65969 7.64939 3.18
0.945536 6.5277 5.425
6.97647 3.08738 47.788
7.03131 4.48428 49.69
9.79814 4.93408 43.789
16.0541 4.04832 27.82
16.1561 4.34038 28
9.46055 5.27433 12.461
5.50628 5.84778 26.361
7.35198 2.95624 45.85
6.96343 4.62502 49.13
16.0387 4.43989 27.504
3.87522 3.69061 23.102
7.16871 3.33623 45.929
5.55064 5.03649 52.143
5.73608 5.29941 52.126
17.8694 2.94625 20.206
13.5611 6.6276 8.668
16.0088 4.78974 27.206
0.802397 2.36464 4.596
15.9702 5.51708 28.321
4.91865 4.33267 51.652
11.9089 2.5 32.635
16.1429 2.42574 22.567
15.8745 3.70145 25.011
17.6929 3.31216 20.158
15.8944 5.09886 26.93
22.33 1.61085 6.779
20.3043 6.0983 17.88
3.24311 5.43274 6.82
12.0772 3.51792 32.719
11.9366 3.9532 33.653
15.7821 3.10177 23.406
16.3701 5.6232 25.587
18.6904 5.63209 20.079
0.895149 3.97065 33.129
4.76135 4.08332 49.631
4.91865 4.33267 49.614
12.7736 5.31101 32.564
20.0143 0.944976 9.281
22.3392 0.296891 2.872
5.72063 2.74187 20.11
17.6569 5.68874 21.563
5.87114 3.00528 20.175
4.02508 4.89049 27.227
21.1951 5.83403 13.414
21.3107 6.09795 13.464
4.29713 5.83704 27.982
7.03628 4.83363 20.127
10.3155 2.49474 33.221
11.8166 4.84943 33.058
15.6475 3.95627 22.745
15.8329 4.21919 22.68
19.4591 6.12431 16.828
4.67211 4.19641 47.747
4.35858 6.71671 13.244
3.46864 6.54768 15.047
2.96304 0.978118 7.831
4.71699 4.89461 48.616
15.7477 4.61175 22.301
3.11812 5.97962 16.048
2.31835 2.81826 13.179
19.0069 6.27052 16.924
1.40297 4.78806 55.115
3.73355 6.50198 16.26
7.30382 3.99121 40.163
6.35315 4.95518 43.803
15.6222 3.64914 20.144
15.7727 3.91256 20.178
2.79287 2.76958 14.735
-3.95005 4.3052 43.765
5.82163 2.96406 41.089
4.66831 4.42009 45.91
7.43379 3.79369 38.548
9.04947 6.34242 6.734
3.51539 1.4874 12.309
15.2801 2.20042 17.84
10.911 7.01476 4.554
9.88229 6.91759 6.8
9.69006 6.66874 6.882
6.54193 6.43403 13.85
21.2392 6.96553 10.529
-3.14473 3.93034 32.507
3.85883 4.01231 25.269
21.8612 6.97065 9.087
7.30581 4.13095 38.283
10.6904 6.24917 5.172
9.5231 3.77792 32.594
-2.55663 4.00583 32.535
8.77402 1.23082 9.709
4.10952 4.93122 26.04
11.0648 5.545 4.512
18.9235 6.29966 14.102
3.84461 4.97692 20.414
-1.75096 4.63729 32.873
4.0039 5.366 26.909
-0.176074 4.32135 55.109
6.32354 6.31135 17.807
7.12909 1.04459 8.165
7.47235 3.06634 35.419
5.24518 5.6698 20.309
4.83538 4.86497 20.096
7.73176 1.1618 7.897
4.33165 1.8811 16.784
5.20146 5.54463 42.466
12.7758 5.95392 4.114
9.50842 6.18214 12.066
3.81348 4.75373 23.197
-0.98274 3.62002 32.591
3.77972 5.32726 45.451
-1.29236 3.47068 55.478
12.8552 5.6453 4.27
7.81796 6.23417 16.878
10.7602 0.349951 1.367
-4.99711 4.39 43.8
4.43581 2.81607 40.253
6.00877 5.3095 41.15
2.50678 3.29079 45.417
15.6472 5.89905 19.361
