ply
format ascii 1.0
comment Saved by Easy3D (liangliang.nan@gmail.com)
element vertex 2131
property float x
property float y
property float z
end_header
17.0706 5.24983 20.088
12.5182 2.09998 3.32
20.6948 7.01521 10.091
22.8002 3.22546 43.852
0.802397 2.36464 4.596
19.459 3.1752 31.852
22.3487 2.43521 6.821
19.0617 4.71831 43.178
7.13477 3.40659 45.856
15.7436 1.38316 12.103
14.0727 1.82626 11.464
14.0612 4.94326 43.779
12.8534 6.00872 4.812
10.5725 4.83919 57.043
17.8736 3.7289 20.195
1.07977 4.66687 32.664
16.4603 5.57999 28.095
21.0281 2.94321 45.393
6.98373 1.63369 14.17
7.85652 5.50682 34.044
8.06631 6.007 19.455
2.59503 3.10784 43.921
-0.764529 3.23954 44.823
7.60261 0.926032 8.753
1.28529 6.83035 6.963
22.4788 2.74085 6.821
15.8122 3.25508 22.213
21.1951 5.83403 13.414
1.34199 2.46877 7.59
-5.13667 4.89515 44.084
14.1446 1.965 11.925
0.736568 5.59423 4.49
2.70703 7.04771 9.445
17.9461 5.8803 20.074
19.8545 4.44146 22.442
22.2133 3.72301 6.924
10.0631 7.83749 2.654
1.84781 3.14643 45.269
22.4132 6.4736 6.83
10.1294 3.16828 57.013
7.96712 5.42138 32.644
22.5092 3.39733 5.926
27.942 4.57789 55.82
16.9764 5.01356 55.057
19.5612 3.97043 30.135
21.0674 4.22852 13.474
19.9029 1.46371 12.192
21.4021 6.62777 6.814
22.4269 3.99951 6.826
2.28851 0.722163 2.753
19.4791 2.12665 19.869
22.8317 4.45498 32.903
18.1372 5.55611 26.363
18.1525 2.21543 20.084
7.03131 4.48428 49.69
6.42419 5.52722 41.437
5.51009 5.62409 40.807
27.5893 3.36692 55.623
18.8784 5.0983 45.891
6.41178 6.1284 17.457
26.9353 3.57191 55.377
19.1695 4.92643 44.924
3.64425 3.66595 20.085
12.505 6.08356 3.117
15.3319 3.38771 17.886
26.0322 4.43736 44.455
-0.984202 4.98977 43.995
18.5618 1.51076 13.481
7.97263 7.28023 6.753
17.2285 1.6136 13.678
23.223 4.9386 32.608
20.3204 4.77027 17.865
7.52508 6.76946 13.304
9.40057 3.02491 12.399
-5.75409 4.23306 43.431
7.97871 5.2535 6.724
9.12595 5.82419 13.294
6.95746 4.2058 51.468
22.7677 7.32114 5.45
15.1726 2.99863 55.802
1.39735 5.37516 8.136
13.591 3.32864 32.59
15.625 6.3047 16.797
15.5172 3.14747 55.179
7.21341 3.53127 20.15
15.3388 0.92769 6.755
0.798479 5.03427 33.547
18.3817 5.55263 31.106
20.3331 5.17542 32.557
22.5365 3.8442 6.68
4.29479 4.69097 20.118
15.8262 7.18237 6.775
19.1489 1.51637 14.323
-2.32765 3.89075 44.384
19.1508 4.10206 40.144
15.5387 3.67828 18.347
8.74248 5.39637 44.5
4.08085 3.40815 30.835
14.5144 4.86692 6.778
-2.28792 3.73644 43.926
10.9688 0.277097 1.557
6.19316 2.55344 23.714
1.85917 7.87044 2.243
10.1892 4.91453 8.025
9.32789 3.31946 12.652
9.07445 5.64322 32.495
13.5588 3.03558 45.796
7.92838 5.64557 6.714
20.159 6.6874 12.173
15.4311 3.97333 18.024
12.6906 3.90053 43.745
22.3902 7.31254 5.571
20.2985 3.23313 43.883
16.7514 5.40812 38.366
17.3769 7.13234 6.819
21.0297 4.52257 13.74
18.7183 2.19339 20.924
1.25977 6.02006 6.832
9.375 7.60968 2.914
14.2761 3.34684 12.724
15.9004 5.51807 26.521
5.14815 5.72708 27.033
11.6651 4.51614 32.486
18.0813 6.53528 13.402
11.2103 5.45907 34.026
-5.27261 4.67346 57.078
14.7143 2.22245 15.111
17.8343 2.44359 32.607
21.3558 4.85337 55.367
17.0254 6.49441 13.928
16.8318 5.16937 45.797
11.7925 8.06445 0.0220003
5.54022 5.77741 21.521
7.14553 3.672 43.449
6.78079 4.06855 56.127
11.0247 7.6421 4.028
16.6443 7.21266 8.015
18.866 2.75036 41.788
15.3954 7.35623 6.739
15.7156 4.3187 20.325
6.77436 5.08895 20.072
4.49744 4.1989 45.764
1.14513 2.8769 6.755
22.6882 4.68065 33.491
5.94943 2.12363 18.114
4.35858 6.71671 13.244
2.31835 2.81826 13.179
3.46864 6.54768 15.047
21.439 6.76701 10.817
17.0629 2.74808 36.949
1.27698 5.26506 33.716
22.2446 4.44936 7.414
2.91149 6.19221 15.817
16.8153 4.9879 49.79
20.8949 4.87391 6.725
8.00949 4.47036 18.365
19.23 5.73622 19.017
0.212367 5.09852 44.979
5.14751 6.66354 13.243
0.643173 4.92467 44.944
22.7827 2.97413 33.399
5.58469 2.52017 32.55
19.031 3.0555 45.63
5.36057 5.43055 44.458
1.94057 4.75245 57.173
11.4615 7.88746 1.773
4.38461 0.692317 5.21
18.9746 2.52519 36.138
23.1209 1.69742 3.035
6.72801 5.7605 27.19
23.1816 5.95949 3.543
8.55136 2.77144 16.699
19.0713 4.41068 43.593
7.75734 4.92121 57.05
16.3001 2.67508 36.778
7.47762 1.47291 12.22
6.55725 3.09335 32.545
4.65163 6.68458 13.281
15.8689 4.28856 32.531
14.2299 4.52155 32.498
4.33043 6.70313 13.348
0.724806 5.25895 4.976
9.88585 3.24163 55.774
9.15591 5.47434 13.444
4.33967 5.38917 39.222
3.43446 3.16577 45.62
4.07207 3.28248 28.546
8.63129 1.0232 8.099
0.611223 5.13477 45.09
15.8362 2.48601 32.519
17.6569 5.68874 21.563
7.16871 3.33623 45.929
5.20146 5.54463 42.466
11.9947 0.667817 1.045
9.97322 0.542856 1.979
6.85891 2.68373 32.937
2.29231 0.49848 4.112
0.210439 7.9079 0.941
3.78434 4.67029 20.119
8.77864 0.573842 3.262
12.8601 3.04553 5.126
12.4612 5.45523 34.572
2.54313 7.31561 6.939
-0.510211 3.43159 33.036
2.49233 0.803122 5.366
8.96988 0.752818 5.294
7.07619 5.18249 45.811
4.61365 3.52635 45.803
19.6122 5.59101 27.946
4.30421 3.88018 34.646
20.6302 5.42277 34.198
7.33571 0.831994 5.018
19.946 5.47445 34.346
0.698763 2.93916 4.511
16.2763 3.94732 34.555
17.9539 5.93609 21.51
0.625732 2.22738 3.61
7.57335 3.28853 56.463
16.3574 2.77211 37.614
17.2813 2.87077 42.53
1.9082 1.00712 6.881
1.24444 1.01657 7.045
20.1942 4.74412 43.764
21.7822 0.44459 3.323
9.91383 2.75204 34.549
4.33528 1.15425 6.818
2.03255 1.3967 6.72
6.45514 5.24724 46.224
19.4293 4.02821 38.257
21.2039 0.564639 4.189
11.0432 2.06507 3.436
6.9742 4.89043 48.618
18.7932 5.49086 41.766
7.28709 3.30659 39.26
4.50797 1.01203 8.127
16.5873 5.17285 44.076
1.48418 1.1669 8.455
22.0016 0.637142 4.732
19.7288 5.9248 6.745
19.6886 4.56962 25.819
13.0409 1.01632 6.734
18.9193 5.51702 28.36
10.3768 2.87124 6.804
19.6494 0.838358 8.891
14.7708 2.75277 32.658
21.4582 0.756694 5.752
12.7911 2.61323 33.74
17.7765 0.837073 6.835
15.0729 0.903523 7.524
14.3976 1.08086 7.294
10.4792 1.72368 6.769
13.8779 5.32324 44.076
10.8687 2.57072 34.544
4.47192 3.3886 45.681
3.83911 3.11808 44.924
11.1171 5.29267 45.461
10.6135 2.81196 4.794
7.8962 2.4034 6.714
9.21161 1.04289 6.804
17.6404 3.06133 54.181
-3.71311 4.74909 56.696
14.3596 0.871748 6.805
-2.49039 4.73168 32.593
16.5948 1.77637 6.871
18.8128 3.43599 51.936
17.4929 3.00752 52.441
12.7747 2.93494 4.953
10.5195 3.07886 5.248
19.9791 2.88826 21.115
8.53679 2.72972 6.757
16.3341 2.60472 33.513
-4.71166 4.80524 57.18
14.7236 3.85761 57.143
13.6295 2.6013 34.514
8.32596 7.55473 4.235
9.99634 5.60214 9.162
9.3146 1.40482 11.273
8.30049 1.34938 11.666
7.96472 1.3262 11.831
9.9748 5.07133 55.668
1.01353 3.94101 6.517
6.42401 5.02405 57.111
15.0085 2.76336 6.746
5.64883 5.55223 29.101
5.10526 5.16862 57.16
1.91909 7.17075 9.335
10.7079 3.55139 5.942
9.35024 3.41698 6.713
19.4087 3.56727 36.628
1.72008 6.93597 9.465
19.1697 5.42959 34.632
14.4517 0.465109 4.095
18.8852 5.08422 52.941
1.89217 2.33514 11.749
12.271 2.90018 45.446
25.9194 3.87989 44.459
19.8733 2.81988 32.41
18.8064 4.45639 54.762
7.28691 2.80342 37.432
6.43934 1.68337 13.299
10.8111 4.41649 43.788
7.72275 5.92803 22.626
4.78282 1.66503 13.808
15.4403 2.65937 34.493
1.81821 4.50261 6.772
6.54052 2.40872 29.431
2.50678 3.29079 45.417
19.6902 3.70303 28.041
18.8899 7.37636 5.496
13.9433 3.53328 6.79
12.2772 6.77167 2.254
7.65428 1.61016 13.99
7.95021 4.23359 6.741
21.487 5.22887 33.973
5.15985 3.11325 47.349
20.3155 1.97497 17.916
21.1126 2.98393 6.674
23.5562 3.31254 56.78
0.687881 5.11971 32.558
0.366678 5.13826 32.606
7.43379 3.79369 38.548
19.9964 5.08238 43.787
8.0037 4.5543 6.758
4.16856 1.7157 12.325
16.2663 5.69456 27.862
2.30847 5.06868 6.857
1.01786 5.22682 6.775
17.8895 4.84682 55.057
20.3672 2.6591 33.383
21.5008 3.25794 6.73
18.2735 1.38907 12.996
1.11845 1.49357 6.623
10.8028 5.80031 4.254
15.7108 4.47251 20.071
17.8014 5.53294 26.528
17.1035 5.10959 55.138
16.1003 2.87361 34.482
5.03152 2.44419 27.195
0.688171 3.17692 33.575
18.9832 5.0968 50.612
21.1633 6.54731 13.352
22.2307 3.47118 6.803
7.00644 2.73753 37.975
13.2314 4.5777 6.937
11.1028 6.25728 3
12.1715 1.30823 1.936
2.21771 3.6024 12.827
17.8464 3.78519 58.951
1.00037 7.9246 1.263
10.4501 4.58935 43.812
1.80791 2.79758 8.9
10.9819 1.68857 2.827
20.0116 7.13676 6.774
19.8554 1.56222 13.978
16.3137 2.64694 36.526
16.8158 6.4974 13.396
14.8912 2.86287 45.763
22.4615 2.99268 32.519
7.38201 5.55551 36.331
13.5118 4.64359 7.714
14.2294 3.01206 12.331
16.5532 4.74005 43.996
17.7456 4.06616 20.144
16.8732 4.14847 53.294
8.17649 1.96612 16.703
6.19099 1.91053 17.441
4.92953 2.15213 17.163
6.94435 2.79432 40.369
16.3826 2.57607 36.061
2.68052 6.16755 6.731
1.61574 5.49785 8.847
13.6252 4.2646 32.454
5.82731 5.32606 37.497
14.4461 4.00133 13.299
22.262 4.19753 6.992
17.4345 5.28658 42.669
7.51847 7.28669 6.767
16.1068 4.80232 30.761
10.4645 4.12791 6.851
11.0986 7.92058 0.645
10.5156 5.7485 6.779
10.1467 5.3624 7.961
19.3005 4.79877 56.433
9.33286 3.66881 12.848
24.8332 3.18254 32.981
4.23726 1.14167 8.003
3.82671 3.71926 22.452
3.39608 4.39628 18.129
2.27441 7.58499 4.107
22.5713 6.28965 5.412
5.32845 5.13749 51.882
8.86923 1.53695 13.51
2.35066 3.61448 13.21
5.9592 2.31916 20.146
0.0153378 5.00349 44.927
15.781 5.47784 21.349
22.4176 2.36435 6.716
10.6255 6.59952 5.529
10.0747 7.6696 2.757
9.01464 3.89697 13.468
4.53571 5.41434 40.629
9.08973 7.6976 2.97
8.1659 2.20388 18.372
19.2112 4.91186 57.1
3.42498 1.02745 6.864
6.36789 5.50006 43.499
18.7336 7.19688 7.758
20.3193 1.75129 16.554
11.0904 6.85846 2.717
1.06965 3.465 6.75
5.42564 5.58336 32.58
5.8884 5.1994 54.343
4.02508 4.89049 27.227
12.7801 7.23973 4.139
10.3237 6.50598 6.927
3.83519 5.78771 32.547
18.5399 5.36868 20.11
12.8629 2.75198 34.472
4.11795 4.05056 34.404
6.6946 7.34035 5.747
14.3411 0.550545 2.718
7.78378 2.85226 24.074
20.9832 7.64006 3.053
20.2301 1.86438 17.207
19.7685 5.77049 6.742
20.2824 1.61205 15.322
16.9064 2.06545 17.895
17.7438 4.42959 32.435
17.3261 6.01492 18.447
14.9161 7.55873 3.544
12.5015 4.36446 43.734
10.1131 6.43909 8.187
20.9514 5.40422 14.39
9.90382 7.4484 5.48
8.44375 3.06649 17.946
11.8961 4.54081 34.306
9.37582 7.17638 7.193
6.89643 7.28157 6.825
16.23 4.61886 43.567
15.6505 7.11499 9.162
5.44595 2.59203 20.16
5.23312 7.2773 7.333
15.7897 2.6544 23.748
3.96083 4.30438 25.434
11.3832 0.424941 1.595
8.49214 5.48379 32.551
9.15357 4.32827 13.414
6.8729 6.61102 13.342
15.8469 5.19737 45.288
22.3887 5.73318 6.789
4.06283 4.59644 25.647
19.7847 1.99651 17.992
15.8745 3.70145 25.011
19.7379 4.10768 20.11
15.3916 7.57992 4.297
15.0782 7.65426 4.215
3.54196 5.31667 43.863
19.6528 5.00341 31.888
11.2019 0.944665 2.825
19.868 4.41332 20.241
9.8113 0.95049 6.888
12.9985 7.36241 5.724
-3.03197 4.48781 56.595
1.12946 5.21126 32.502
26.2204 4.40672 43.812
7.91534 7.1832 7.807
21.41 4.23762 32.535
21.4746 0.434993 2.873
15.5263 4.27946 18.27
19.191 5.45724 30.074
18.7 5.32447 38.682
14.5683 3.74801 13.685
23.4316 7.81485 1.774
22.4849 6.10918 6.794
22.3477 7.7604 2.316
21.6491 5.3244 9.221
15.7518 2.44529 21.464
4.10952 4.93122 26.04
5.33734 2.81721 37.101
19.5167 7.22766 4.842
15.0567 7.12345 6.729
11.1997 5.69682 32.453
10.171 5.59966 33.043
-0.256359 5.06327 56.389
21.3416 2.86886 45.442
9.2836 7.07986 8.747
28.5475 4.40154 56.144
20.7137 2.94768 45.525
3.58339 7.24489 7.74
5.86154 3.31291 20.114
3.08213 2.96113 45.518
19.2081 4.19908 43.843
19.7227 5.00241 45.043
17.8177 2.26212 20.1
27.209 3.65188 55.445
3.23942 3.21048 45.534
17.3862 5.81839 20.172
16.5055 7.28452 6.814
18.4919 1.51175 13.676
22.6026 4.06689 33.418
2.99207 3.50751 32.6
6.62631 3.52565 57.145
22.33 1.61085 6.779
14.8452 7.48986 3.842
18.9853 2.79059 38.437
12.24 5.6261 34.253
1.73207 2.37935 9.513
3.72389 3.86049 20.25
16.276 2.94099 39.061
-5.38818 4.40954 56.397
-4.1898 4.15487 55.873
-4.03432 4.76764 56.446
-3.58595 4.84512 55.512
19.3062 1.76572 6.756
0.739667 3.35789 32.555
15.8723 3.05855 26.836
14.4066 4.6588 32.526
19.6778 7.25332 6.801
19.3499 7.28595 6.818
7.92352 2.85027 20.124
7.29628 7.38769 5.24
15.1516 3.97731 17.786
5.8798 5.5769 35.52
16.3497 2.71631 35.544
1.70041 0.646676 2.115
8.59449 6.78218 11.821
3.03239 7.81181 3.551
14.4581 7.78888 2.82
21.7325 2.34615 9.239
3.99565 6.74983 13.331
1.55078 2.89908 8.675
3.03204 6.80548 13.396
14.7126 5.53499 33.066
3.63735 6.12597 18.998
21.0055 4.78847 14.11
8.28095 0.958304 9.613
19.5994 2.23675 21.605
19.9272 7.09603 8.172
15.468 4.11257 17.964
2.56799 0.718184 3.034
17.6249 5.89885 23.962
20.0043 5.64134 6.755
18.7854 5.43506 32.143
5.8008 4.4459 20.164
2.99295 6.02333 16.654
4.18203 4.1335 36.428
13.226 0.27291 1.525
15.0838 7.06715 9.549
15.1376 5.44508 33.553
17.8269 3.39412 20.166
18.2625 6.01556 18.368
18.868 2.8901 47.503
14.2311 5.09458 43.873
18.7132 4.28999 43.747
4.61517 5.10572 50.473
5.93223 2.87862 43.79
9.18253 3.90856 57.213
8.32262 6.33879 15.279
4.99677 2.94785 43.905
18.6941 2.4593 29.61
4.69113 3.07799 49.375
17.2877 7.24543 6.378
18.7104 4.58355 43.817
14.6594 3.2715 6.867
16.0417 4.6495 43.813
19.386 2.46342 23.066
18.7426 2.43065 23.426
18.4068 2.40748 23.608
16.9148 6.57985 12.716
-1.06139 3.49535 44.201
7.17918 5.54442 34.628
6.61425 5.13316 20.114
8.2373 3.78225 18.314
5.672 5.21646 20.164
16.2932 5.13511 37.162
5.18648 1.54746 13.379
10.7647 5.08804 55.165
16.3787 5.2457 39.021
5.41762 2.07529 17.909
-0.271459 3.51205 56.411
14.7711 3.7591 43.77
19.4671 6.68327 12.5
18.4082 6.43279 13.55
7.19223 4.00678 44.867
15.4508 4.86756 18.931
22.7417 5.00136 32.605
26.9188 3.39045 43.812
6.75634 6.27724 17.898
6.40599 6.21234 18.193
5.751 6.34746 18.029
4.99858 2.58442 28.559
4.81647 3.53744 50.914
8.58671 6.72639 12.02
3.2585 5.04117 17.064
3.26096 3.74129 17.457
4.51165 3.23429 45.621
-2.77221 3.58959 56.919
15.7111 5.47884 34.164
15.4013 4.82634 43.803
17.835 4.45624 20.123
1.9662 3.11679 45.38
18.4328 7.17321 7.411
16.761 5.10049 48.215
7.12008 5.81082 20.043
10.7482 7.85569 1.964
5.82848 5.8991 20.223
5.13153 2.59651 29.491
6.00497 5.53319 37.396
4.49328 3.41625 43.712
3.76146 3.06328 44.876
9.07896 7.4322 5.242
18.8348 2.52718 25.916
18.4709 2.49043 26.145
15.6641 4.13773 22.669
16.783 4.19168 51.421
17.2742 4.82762 43.787
3.38542 1.68492 11.767
0.913876 4.79502 5.799
24.8061 3.23883 44.793
16.3272 5.06474 43.524
25.7555 4.14779 43.761
20.478 6.02594 16.693
1.07111 2.09525 6.738
23.4743 4.92104 33.382
16.2921 7.51118 4.837
17.3824 6.04207 17.793
22.1478 5.00981 33.743
17.7365 2.93417 41.207
18.0926 2.91512 40.979
19.4277 2.44885 27.989
6.93066 5.26842 47.327
14.424 7.35609 5.479
18.2129 5.47117 20.149
17.913 5.51737 20.149
16.9777 6.08976 18.935
10.8258 4.96137 5.379
4.28478 1.04316 6.815
23.9958 3.26435 44.913
7.50231 2.7165 31.401
6.52214 2.59068 32.057
1.66436 3.02325 33.744
11.8831 3.6325 33.325
19.7717 6.48326 12.331
0.929265 4.40345 32.648
19.4064 2.4212 29.247
5.08799 2.9745 45.669
5.0269 3.10116 52.988
15.9387 1.33845 12.179
24.0152 3.15226 43.895
6.28345 5.45934 20.102
18.3944 3.00866 55.015
6.68687 1.8895 13.903
18.3768 5.20328 49.061
1.03366 0.446517 1.415
16.6532 4.89237 50.586
11.7894 4.90572 45.503
12.0595 0.317472 0.975
13.0038 0.373911 1.569
11.3095 0.649619 1.307
9.63645 0.449813 2.341
2.65922 0.744838 3.357
13.6685 0.43433 2.212
12.0957 0.890009 1.458
16.2977 3.97496 33.551
6.92949 4.69539 54.851
0.177193 1.64674 2.507
22.6449 0.166747 1.018
16.2523 4.71638 34.683
13.6336 0.434828 3.282
5.48902 3.65366 58.164
12.0365 1.15641 1.79
10.6641 0.47711 4.053
4.01467 5.63141 28.325
9.02418 0.64023 4.086
18.7692 0.864867 5.743
0.306342 1.88251 2.889
22.5061 0.238607 1.852
4.29713 5.83704 27.982
14.3605 0.438455 4.067
14.0111 0.443429 4.133
13.3416 0.536824 4.083
15.1786 3.41785 17.843
1.45745 5.17863 32.533
8.68261 0.701001 5.018
23.5636 7.75707 0.254
9.16977 3.50341 13.19
1.40934 0.818543 6.577
3.54137 0.858069 4.174
21.5367 0.378202 2.729
13.2669 0.691633 4.632
22.3966 6.29214 6.824
6.41523 4.89839 57.098
6.75059 0.966118 5.765
2.53902 1.1379 6.88
2.86502 0.965537 6.782
2.25656 0.932271 7.224
0.382181 2.30074 3.682
20.413 0.478064 3.75
22.4569 6.59877 7.119
15.6862 0.782976 4.504
1.65406 1.31822 9.158
12.4084 1.75212 2.865
10.6741 1.17581 4.98
8.64867 0.771369 6.719
7.96454 0.82304 6.752
20.1242 7.19106 7.598
0.252981 7.46003 1.28
-0.0389664 5.11608 32.657
1.07573 1.43827 6.835
23.3293 1.1214 1.909
20.1219 0.64993 4.337
19.429 0.575936 4.781
5.63853 3.8472 58.623
10.6763 1.81871 4.19
4.77048 5.21532 55.163
16.205 5.31806 34.524
3.81026 1.09185 8.078
3.16785 1.12895 8.176
19.9453 3.46179 23.113
2.22578 1.71541 6.799
0.61912 2.74462 4.355
17.0396 5.52981 32.852
0.504428 4.99653 57.164
20.9662 0.554048 5.323
15.6435 0.727676 6.668
15.3223 0.746227 6.75
12.002 5.11235 33.026
12.5124 2.18392 3.668
8.74967 0.99356 8.112
8.09369 1.05881 8.096
2.62183 2.04522 6.817
1.93834 1.16043 9.442
1.61134 1.26293 9.212
1.0168 2.20784 6.785
22.1502 0.760819 5.489
20.1948 0.858545 7.628
19.0884 0.706577 6.752
17.072 0.930965 6.818
13.7581 1.32757 6.802
13.1089 1.37875 6.901
16.4722 3.46931 20.122
9.75799 1.13295 8.607
14.204 2.70493 34.508
1.24198 2.31645 7.607
21.7521 0.291274 3.202
20.1676 0.91484 6.861
18.4898 0.868847 7.615
16.8071 0.976668 7.878
16.122 0.958469 8.142
15.4524 1.05186 8.14
15.0963 1.07091 8.189
14.1823 1.67095 6.812
3.58649 5.00855 57.145
16.6309 2.34891 28.263
2.97223 5.05923 57.177
8.22419 2.37077 6.698
12.537 5.87346 3.702
1.28189 2.6653 7.78
0.987021 3.06085 6.732
15.7805 3.96835 32.543
21.4574 1.18999 6.772
20.0696 0.902258 8.036
19.7416 0.934882 8.052
19.7751 2.30414 20.803
15.8513 1.08812 8.987
15.7936 5.37983 34.543
17.907 5.09815 52.486
1.21618 3.44894 6.742
17.4211 5.81789 21.221
19.9435 0.876101 9.206
19.4052 1.84817 6.745
18.2935 5.73558 29.1
13.0706 2.60926 6.778
12.9074 4.8898 55.077
10.0155 2.03778 9.305
11.8659 4.38749 56.815
4.06177 1.57745 12.225
22.9029 2.58107 4.466
20.9304 0.987839 9.517
20.2609 1.08123 9.549
15.3433 2.71666 6.778
5.44331 3.38875 54.953
12.9989 2.97367 6.811
13.0466 3.37832 5.696
7.39967 3.36089 36.972
6.89999 3.60561 51.853
8.00334 3.54797 6.763
7.12247 1.56183 12.455
10.5521 4.88141 6.849
5.14475 1.56203 13.012
4.78862 1.58108 13.044
14.1693 3.20859 6.738
6.753 5.0613 54.265
18.7364 3.95422 56.173
9.91318 3.6885 6.738
9.02254 1.50682 13.02
7.68143 1.55387 13.267
7.36702 1.55834 13.315
17.3116 3.52725 57.944
5.76879 1.70689 13.398
13.1364 7.72384 1.599
16.8113 4.70842 54.927
16.1903 4.77317 55.042
10.5607 4.50391 6.275
13.5443 2.99386 8.429
9.91716 3.96798 6.871
7.66646 5.90088 20.241
9.27511 5.01141 57.092
15.5932 4.06886 32
4.681 1.87613 14.138
15.7487 4.68162 32.51
2.30449 4.7892 6.741
1.27001 4.77597 7.02
9.92021 7.1267 8.255
19.8436 1.22694 11.956
16.7849 1.38231 12.612
16.1513 1.54508 12.384
15.3223 3.69534 17.926
2.11951 3.08666 12.351
18.2388 4.84184 54.959
0.179131 7.18155 1.576
17.2762 4.96736 54.991
9.34668 7.09294 9.55
21.1729 3.29057 6.746
15.6255 4.86508 55.991
10.2579 4.3405 6.734
19.2537 1.51488 12.307
18.9247 1.47763 12.553
17.5884 1.37087 13.308
16.9266 1.52006 13.144
13.632 4.25053 6.731
13.3031 4.21328 6.961
10.0425 4.42743 7.404
8.73347 1.81842 14.933
3.25645 1.95232 16.114
2.10892 3.32441 12.638
1.02284 5.57617 6.749
0.505133 7.00918 2.928
-0.0592683 8.10741 0.0249996
7.18018 5.61429 32.646
21.8891 3.53195 6.723
21.5611 3.56457 6.804
20.5657 1.38438 13.136
20.2231 1.37529 13.283
19.5603 1.45461 13.283
19.2323 1.48723 13.316
17.8854 1.61822 13.431
16.5637 1.55318 14.071
14.2795 2.11683 13.317
7.44128 5.79227 32.267
5.06155 5.04345 57.142
10.2415 4.6622 7.642
8.62965 1.88979 15.729
8.64148 5.17418 6.708
10.1074 4.07709 6.685
15.983 0.527165 4.657
22.2007 3.82103 6.892
15.6808 4.82236 57.016
4.61863 3.8757 47.402
14.2438 2.55062 13.241
1.02412 3.70326 33.591
5.33758 6.26948 17.666
7.03441 2.24795 22.261
11.0457 6.66342 2.958
8.24959 5.62702 6.664
27.0441 3.8499 55.416
5.52723 1.91999 17.622
3.0153 6.12085 6.796
9.94332 3.84182 6.734
1.50105 7.74975 2.696
19.0832 2.30001 20.17
16.1154 4.42482 30.221
21.5934 4.36079 6.778
22.5666 3.99752 57.122
20.6754 1.73224 15.645
14.7503 5.24094 6.795
14.1761 3.19452 12.585
14.5064 4.30796 13.577
11.3877 7.60897 1.383
15.8956 5.67189 32.501
9.83027 5.22713 8.435
16.6631 5.59107 30.565
18.2883 4.88307 56.662
4.74485 6.85097 12.554
5.26431 2.10543 18.359
18.2857 5.67979 26.861
2.17704 6.63595 6.747
4.87646 5.78686 32.476
19.9401 5.05522 22.023
20.4648 1.66536 15.665
9.76466 3.56482 6.751
14.2907 3.38856 13.14
13.4926 5.25884 8.317
1.90581 5.25611 33.838
7.35028 0.873717 4.975
11.0255 7.2088 3.725
3.96815 5.79979 25.206
10.752 7.632 2.675
9.81967 5.46489 8.892
2.05322 7.75586 2.689
2.21735 2.59607 12.029
8.39483 7.48387 3.807
3.26657 3.15418 17.829
18.9046 4.97213 57.085
1.76396 7.56431 5.447
13.0826 1.00175 6.341
16.0492 6.64808 13.316
14.1353 0.329846 2.897
22.532 5.00434 6.828
17.2382 1.80914 17.506
15.5837 1.93054 17.784
14.2455 7.58226 2.728
6.77336 5.01908 51.966
10.7431 7.00317 5.451
9.90031 5.7293 9.207
10.1154 7.58516 4.056
9.75929 7.60421 4.106
9.11009 7.65538 4.156
9.48671 5.14816 45.784
13.3111 2.32629 7.751
3.01864 7.33679 6.78
15.4381 7.41153 4.222
29.3752 4.1242 56.502
13.4413 2.63193 7.915
4.8122 5.20075 48.845
18.5668 1.86011 17.846
17.904 1.93943 17.896
17.2199 1.9911 17.994
13.4948 2.95264 8.21
25.35 4.62877 57.109
14.9736 2.76386 16.649
4.83538 4.86497 20.096
21.3895 1.33072 12.322
21.5422 7.6321 2.818
20.9754 7.58427 4.096
10.4898 6.88099 6.825
10.2318 7.41578 5.463
14.114 6.20042 11.457
9.55447 7.45338 5.561
8.92558 4.51322 13.812
7.17596 1.88253 14.366
8.89252 7.09941 6.743
15.8772 5.85385 6.817
7.55241 7.21633 6.824
6.39498 2.49466 20.143
5.77394 2.55941 20.128
6.24723 7.33275 6.858
7.15782 5.51677 43.812
0.620177 5.7636 4.07
3.91817 7.19819 7.891
15.4055 5.60898 32.489
7.47025 5.37255 34.764
3.83484 4.78138 22.293
21.9615 5.18019 8.479
22.3107 7.62116 1.672
19.5738 3.87241 20.175
20.1127 1.96388 17.96
11.8954 5.47726 32.631
11.8751 0.124423 0.0539999
18.1088 2.09026 18.402
17.1035 2.16048 18.566
4.5425 5.40026 41.667
4.43581 2.81607 40.253
16.066 7.33271 4.74
19.3923 0.939857 8.48
13.6349 6.90609 6.74
10.584 1.72219 5.415
9.39946 5.40099 12.219
20.7003 0.529881 4.856
9.29337 7.2754 7.118
20.8594 0.4158 4.283
4.06101 4.95986 28.409
10.1837 3.05569 8.318
4.94305 7.51904 7.742
3.27851 3.99262 17.879
2.91764 7.1146 9.432
30.0777 3.89057 56.888
15.0272 6.03368 15.9
13.3061 7.372 6.526
20.7629 1.98258 6.758
29.6059 3.6457 56.718
8.68062 0.561261 4.799
15.8528 5.61659 23.483
29.2965 3.99953 56.91
20.5969 7.5058 3.661
19.1782 2.10298 18.997
18.7324 6.62385 6.761
28.9567 3.69687 56.275
17.0965 7.06645 6.188
16.7715 7.30868 5.63
16.4522 7.46697 5.302
9.31104 5.08078 13.319
14.1205 5.18002 12.338
28.8162 4.13216 56.204
1.75618 7.50851 5.032
9.0597 5.09834 14.242
8.95081 7.2663 8.288
11.4296 8.09757 -0.117
4.52143 3.42983 20.164
3.19115 6.6914 11.602
7.77606 5.74557 32.508
22.0084 6.01813 8.224
9.76707 7.66 3.113
21.1996 7.62301 4.173
20.5203 7.52086 4.665
3.86743 3.63482 20.489
18.4873 2.16873 20.084
9.97538 1.18576 6.839
17.4897 2.29475 20.117
18.1241 7.09375 6.766
6.55117 5.12008 51.74
16.5397 2.32225 20.363
17.1897 7.23284 6.732
16.1708 7.33121 6.798
9.17475 3.85276 43.723
14.268 5.23383 13.194
9.60591 4.68523 43.887
9.07047 5.36374 14.541
26.6269 3.99561 56.401
8.27141 4.21504 17.936
7.43625 2.49381 22.955
4.31586 6.66141 14.294
3.46765 6.47781 16
4.1231 4.90307 32.011
22.3279 6.86617 6.834
21.4063 4.96446 12.394
26.8025 4.06299 55.194
20.3474 7.15993 6.801
19.3277 2.29653 20.432
5.73385 1.70739 13.341
18.9734 1.95215 17.933
17.7247 2.59889 20.219
17.4035 2.61744 20.317
4.45724 5.79283 32.535
15.2331 3.80843 17.824
14.1538 6.04611 12.05
9.194 6.18662 13.298
8.35404 4.6192 17.874
15.7858 5.32403 20.119
6.79764 2.30722 24.665
6.15044 2.49814 24.353
5.69102 4.09804 20.121
4.557 2.49287 24.813
15.8111 5.63116 20.463
13.147 2.09102 6.86
0.987725 5.07351 45.2
13.5143 3.34371 7.811
21.4269 5.42541 12.174
21.6973 7.23854 7.122
20.9529 6.98358 8.139
18.6865 2.90666 20.112
18.2943 2.35318 21.786
17.6822 3.04676 20.129
16.6846 3.17278 20.113
30.0377 3.54171 43.87
17.2279 5.49917 27.083
15.1547 7.13603 9.829
14.5854 5.43896 14.652
20.426 4.33549 17.835
18.8233 5.64418 23.492
17.1087 5.96211 17.873
6.99708 6.49744 14.193
4.94029 2.41753 26.019
3.99922 3.07387 24.477
5.50628 5.84778 26.361
21.7222 3.59023 6.742
21.0512 5.05338 14.392
20.9723 6.87149 9.471
8.12986 4.58046 18.392
20.0106 7.06689 9.259
17.3267 2.12935 23.758
8.34427 4.42366 17.654
16.2355 6.47771 12.276
15.3051 4.45033 18.132
15.7058 7.07227 8.106
6.9248 2.40325 27.508
7.16724 4.70598 20.15
19.0069 6.27052 16.924
4.6064 4.98005 20.15
6.65428 3.03606 47.572
3.46566 6.33807 16.722
20.832 5.36399 14.602
16.92 7.43236 5.746
21.8569 5.68484 9.383
1.3805 7.13649 7.242
6.74533 2.55955 32.37
17.9444 0.848659 6.736
14.7603 5.93964 15.243
-0.13775 0.14173 0.0109997
27.6175 3.3805 44.205
11.0648 5.545 4.512
4.72788 2.71407 27.314
4.36975 2.59338 27.742
3.87838 4.40339 22.887
14.6032 0.798396 7.227
6.96343 4.62502 49.13
19.8096 6.69237 12.32
18.5466 2.40549 24.523
6.5318 5.23217 51.032
8.97977 6.84658 11.299
17.3758 6.55931 13.583
16.6683 6.44359 14.19
15.848 2.82129 24.376
14.9098 6.13318 15.633
9.25556 4.62034 43.752
8.40987 6.08597 17.947
7.68079 2.49032 28.034
6.07121 6.25904 18.177
4.09243 3.24026 27.033
3.9105 4.69644 23.131
14.7982 6.14875 14.508
17.8595 2.24755 20.127
20.6427 5.32476 16.679
20.2671 4.95273 17.893
19.5868 2.33477 25.291
21.2103 4.9393 6.757
19.7496 1.49384 14.617
5.01034 2.9197 43.998
15.7707 3.77282 22.781
16.1347 6.75868 12.229
21.0033 4.14557 57.072
8.12939 6.02008 19.206
7.80819 6.03863 19.239
6.17104 5.9082 20.109
5.18707 6.00607 20.109
3.73764 4.33551 25.16
7.62111 6.6423 14.152
19.7992 7.43329 4.523
7.65317 3.98624 30.244
5.06951 5.60241 38.639
20.2439 5.28851 17.847
19.5034 2.36391 26.113
17.485 2.44856 26.654
16.8075 4.93211 20.11
15.8977 3.36568 24.686
26.1759 4.71485 44.488
1.49191 6.61776 7.21
7.59969 3.66553 29.9
9.54961 4.65808 6.741
6.23313 5.8514 21.144
7.60736 6.16728 6.767
5.23558 5.97742 21.079
4.02953 3.73035 27.574
4.47064 5.26152 39.524
4.00255 4.2898 22.846
19.2355 2.2 27.601
18.4518 6.0548 17.398
23.2869 7.46749 1.558
16.2554 2.48004 27.978
15.7094 3.39631 25.648
5.80308 2.64285 32.589
20.2805 4.42142 17.438
3.00635 5.49202 16.424
18.4905 5.83061 23.636
3.78217 4.02738 27.798
20.4292 5.04826 17.963
18.4553 2.37884 28.547
20.2401 5.51219 19.078
16.1642 2.45339 29.153
15.8867 2.59711 28.891
15.9878 5.76841 20.182
8.19902 2.56681 6.773
6.19216 2.48357 32.5
4.95007 2.61307 32.468
3.34551 1.33607 9.439
3.97967 2.68279 32.566
-5.11765 3.77673 56.304
19.5053 4.9496 57.092
19.7099 4.59727 23.178
23.4969 3.07577 45.025
19.2445 5.77795 20.161
17.0823 2.63599 29.542
8.01358 2.30389 6.822
7.55182 2.75772 32.56
18.7974 3.82756 56.47
4.95674 5.04494 53.586
18.2959 4.4357 58.454
3.61674 2.71592 33.856
23.7008 3.15673 43.813
1.0501 3.07393 33.594
15.2139 4.42368 17.349
7.13441 2.40027 20.12
1.20611 5.19619 6.807
18.6215 5.70296 21.92
15.8411 5.28131 24.135
11.7925 2.66938 32.713
7.7293 2.46168 24.578
10.4776 2.59027 33.385
3.52189 3.41611 18.856
8.15151 2.66532 33.959
7.4586 2.59133 34.353
8.33081 2.00586 16.775
15.6393 5.34009 19.533
5.83222 2.7263 34.5
15.6792 5.68895 19.959
7.15648 4.44057 47.569
-1.57546 4.20151 32.565
4.27659 5.3761 36.924
18.5155 5.13142 57.074
8.80621 4.47299 43.749
19.6019 3.88598 27.771
3.99629 5.81337 32.465
8.40231 1.13827 8.007
15.9779 2.62376 24.173
12.4689 2.56192 34.036
6.24273 5.54378 32.58
10.5271 2.6315 34.462
9.86432 2.71082 34.495
18.7094 4.51368 54.718
7.57289 4.72816 28.284
6.62695 2.58919 35.872
13.3725 5.65191 7.717
0.68273 4.26719 33.019
17.8694 2.94625 20.206
10.1877 3.33517 32.489
19.3657 2.50564 32.596
18.7097 2.57089 32.727
21.9734 3.06951 43.853
3.24382 7.4454 6.695
13.0017 2.68012 34.53
7.32764 2.71898 36.301
16.9838 4.06303 56.04
4.01566 5.70128 29.2
18.6809 6.44288 13.91
1.61492 5.93114 8.154
1.47799 5.63958 8.022
11.3567 7.88895 1.494
18.5332 2.9368 32.557
10.5693 1.1773 5.462
16.4379 2.53335 34.51
10.3765 7.76314 3.609
15.1056 2.70607 34.493
14.7708 2.75277 34.509
10.0601 7.62788 4.133
7.93084 4.34568 32.508
0.411614 0.441398 2.546
9.31572 7.37292 5.527
4.00209 5.72943 27.45
1.33029 5.0826 32.508
21.7634 2.06617 9.729
21.3687 2.81256 32.579
19.0604 6.59123 13.238
17.1979 2.89991 51.858
18.9928 4.78918 20.14
16.9798 3.78355 53.612
11.4548 5.45558 32.523
10.4483 2.00366 6.971
19.0436 2.95749 47.562
19.3968 5.67794 20.452
20.4777 5.01962 16.943
7.78385 5.80137 6.757
16.3836 2.64594 34.924
19.5088 6.6687 12.238
-0.629058 4.90085 55.091
21.3441 7.4672 4.069
3.28121 6.14502 17.709
4.77855 3.32833 50.506
0.192003 5.14074 33.432
17.0983 6.70303 13.036
19.7393 2.73793 34.356
20.0057 6.71754 12.085
19.0542 2.71973 34.619
18.7388 2.65434 34.93
4.46174 7.5818 5.161
-5.38637 4.04612 56.406
11.8919 3.75816 34.503
7.26772 3.41868 36.965
7.30628 2.69133 34.345
4.39643 3.97671 36.358
2.94842 6.33146 6.752
3.01372 1.59238 11.527
22.0694 2.94236 33.727
1.59918 5.31638 8.325
19.0659 5.50095 28.003
1.51076 4.99617 8.063
16.1424 3.86536 33.58
1.49899 4.6609 7.587
24.4072 3.20258 33.006
5.05096 5.28121 42.401
6.76967 2.79681 39.813
7.09474 5.50369 32.301
5.09765 5.61599 32.58
4.79102 5.67626 32.53
7.0103 5.46296 38.122
2.16013 5.44816 33.957
22.3251 7.15972 7.216
16.8033 4.14946 51.433
16.8568 4.47017 51.778
7.0838 4.73512 47.177
19.4606 4.75456 30.91
19.5617 5.47992 28.893
19.1392 4.26995 46.056
16.7812 4.55511 32.484
15.8321 4.65248 32.551
15.7727 3.91256 20.178
11.7997 3.66164 34.52
4.64929 5.53851 43.729
8.50092 5.60946 32.584
7.8663 5.70236 32.552
16.1086 4.43889 20.16
19.2339 3.06659 43.164
4.2698 5.39017 34.519
18.0895 5.15146 48.756
15.8684 5.72818 22.57
19.3054 5.14812 45.854
15.9629 4.02166 25.29
23.4281 3.14664 33.246
20.7952 2.7788 6.732
19.7011 4.4716 32.551
19.3468 4.12722 33.666
21.8367 0.835166 6.861
16.8069 5.86857 20.505
22.2427 7.25873 6.614
14.5309 5.04839 6.724
16.0777 4.71887 33.338
11.8197 5.5622 32.568
4.76258 7.60547 5.559
8.52228 5.63711 33.503
6.86769 2.80939 41.786
21.7545 4.38645 6.749
19.0109 3.60089 43.514
4.22129 5.41881 35.505
22.7407 4.93149 5.143
22.3925 5.50949 6.815
22.4359 7.57745 3.722
2.68117 5.23109 6.773
12.9221 5.43469 33.485
19.2455 2.89871 41.099
4.25336 2.76276 43.737
11.1519 7.73812 2.717
-2.57138 3.46094 43.836
16.3112 0.997705 6.739
10.6133 7.70386 3.93
-0.66932 3.54567 57.041
19.8262 6.87384 8.902
19.0396 2.67801 39.589
19.2099 3.83566 36.342
18.7039 2.65483 39.786
18.4865 5.55113 31.946
6.28204 1.43403 13.369
16.4205 2.78518 40.361
16.0535 4.98477 34.439
19.8763 5.9786 18.749
14.8319 5.57522 33.324
20.5555 5.57758 16.601
19.2095 2.82933 40.193
4.68235 2.95233 43.987
16.7803 4.9884 48.981
4.3261 5.41732 37.36
3.06375 3.14309 43.97
8.0817 5.61543 6.766
-0.429749 3.19284 44.889
22.5741 3.04698 32.505
14.5522 7.52198 3.025
22.8529 3.97946 33.128
23.2006 4.84108 33.473
16.2626 6.42141 16.674
6.01954 5.57491 37.399
15.1849 4.8434 16.985
24.1011 4.77235 32.638
21.0891 5.26249 32.588
20.7543 5.30919 32.59
16.6341 3.06168 45.739
3.89681 7.17054 7.936
2.95158 7.04423 9.903
14.199 7.75064 4.188
8.99194 2.79312 43.94
8.67173 2.88154 43.793
8.01575 2.94679 43.842
2.06445 6.58165 11.28
19.3266 4.67261 41.526
18.7844 5.36519 43.773
12.7758 5.95392 4.114
22.785 4.1202 32.509
10.5262 5.51074 6.888
-5.33469 4.73025 56.332
1.41701 3.32029 7.853
3.06077 2.93348 34.247
10.1798 5.72532 7.986
23.1327 4.98181 33.382
21.8198 5.04244 33.775
19.062 2.77553 41.075
19.238 3.84924 38.122
18.7844 5.36519 34.137
18.078 2.8734 41.239
17.0436 2.86017 41.699
16.7388 5.50614 34.564
16.1042 5.59903 34.58
16.659 4.80843 47.045
19.265 3.28978 38.75
4.58035 2.66026 30.328
17.2443 5.17747 46.145
5.24991 2.56687 28.607
7.69255 2.8256 45.176
7.0103 5.46296 38.222
-2.38459 4.80006 44.466
11.8242 4.40206 34.571
1.744 3.21779 32.562
8.20043 6.59212 13.856
9.50842 6.18214 12.066
4.23036 3.6017 32.51
11.8715 3.80038 55.864
11.9532 4.13467 56.159
16.4497 2.86863 43.716
12.8678 5.54728 33.735
19.2922 3.23348 40.725
19.2823 5.4839 34.575
19.3259 2.65995 36.6
20.3579 1.02395 9.634
19.3173 3.03745 37.142
20.3895 2.75662 34.174
16.4997 4.41935 38.561
19.2438 3.76529 38.338
17.5645 5.08905 44.159
22.0104 0.762808 5.404
4.26483 5.04082 34.51
10.7678 2.8517 45.007
22.1196 4.99624 33.142
1.93624 3.46664 32.447
5.30697 7.55579 6.098
4.49492 2.54967 25.168
4.21123 7.16606 8.05
4.60985 3.75004 45.073
4.31188 6.38193 6.64
4.11286 6.14715 6.754
9.39963 5.90415 11.918
5.36736 5.41647 32.543
22.8482 7.08239 4.016
7.69987 4.32102 25.476
16.6908 4.09516 43.843
16.7578 4.38772 44.072
17.0335 4.60742 43.761
16.2254 5.27584 37.442
5.12399 5.99299 20.118
19.2945 4.37955 38.038
21.3974 7.28474 6.792
11.0874 3.69973 43.707
10.3438 3.01148 45.839
10.0022 3.07225 45.791
1.50426 3.06746 8.131
6.67546 2.56055 20.134
-2.34087 4.92523 44.577
3.98471 5.98126 22.774
13.9775 1.52012 6.736
6.91684 1.84429 14.089
5.90098 5.10138 44.04
19.5948 2.89373 43.811
18.9029 2.88961 44.107
19.1811 4.75854 38.858
21.7457 1.31167 6.797
16.2907 3.48587 43.516
16.5201 4.37713 43.555
12.2125 7.62518 1.208
14.5632 2.89549 45.796
13.8868 3.00296 45.731
12.062 7.36177 1.175
16.662 5.01804 44.112
7.1886 4.73363 43.418
5.21966 4.8595 43.747
18.6505 5.28324 39.734
1.01107 5.2409 43.959
12.8552 5.6453 4.27
-0.933701 5.10087 44.943
9.68982 3.21647 57.109
18.0965 5.64055 21.554
18.6904 5.63209 20.079
15.3736 3.37314 43.878
3.97341 4.20636 20.15
16.2013 3.0958 45.785
16.0416 4.14633 42.964
9.66507 7.36794 6.783
11.723 3.67671 45.917
11.1896 4.49496 43.85
5.93802 2.79468 33.561
10.5831 4.60143 43.768
7.70883 4.94985 43.817
19.4114 2.77055 33.451
6.64275 6.15306 18.689
5.81174 5.21447 43.719
5.49054 5.23302 43.801
4.76732 4.50254 46.014
3.89231 5.38157 43.932
1.94554 5.1018 45.293
1.63891 5.16207 45.244
1.01107 5.2409 45.194
5.44115 2.74584 34.66
4.62629 6.37745 6.789
23.7764 3.07179 43.852
8.46422 0.578319 4.361
21.6919 2.93375 45.115
4.18255 5.643 30.463
5.91292 5.93982 20.099
8.2057 4.99868 6.717
10.6793 4.97744 56.238
8.0484 4.74934 6.717
11.8202 4.12258 45.803
9.06603 6.52388 14.371
0.895149 3.97065 33.129
19.4211 2.96609 32.679
19.5648 3.24358 32.745
24.7857 3.28105 43.895
5.4408 1.73952 13.084
18.1749 5.26206 41.287
20.7954 6.23108 15.946
10.0487 5.34981 44.206
8.39992 5.38727 44.681
7.69923 5.25748 45.255
3.76971 1.67945 12.029
4.7552 3.16094 51.963
21.0791 7.00974 8.114
-6.15675 4.42049 56.889
26.4083 3.36976 43.82
26.0735 3.41646 43.837
19.0895 3.72556 46.017
15.6005 5.56428 19.017
18.6786 5.29682 41.917
19.6612 4.12275 32.721
16.0263 5.04107 43.704
15.3772 5.09224 43.837
3.41755 1.97798 18.101
-5.99945 4.66983 56.938
7.32237 4.31242 43.975
4.76597 3.42635 52.216
7.94939 4.66689 20.281
-0.53584 5.06725 44.855
28.4617 3.28462 43.993
0.837218 4.81009 33.418
7.95437 5.01624 20.774
16.4813 4.60131 45.65
18.5835 2.54473 32.023
2.96118 6.7366 12.179
11.578 5.27213 45.716
6.63661 5.23068 47.569
-1.64949 3.41986 55.147
4.35038 2.70547 30.066
4.99957 2.65429 28.459
3.95931 2.72501 24.177
8.16544 3.6435 57.15
3.8315 3.56544 25.702
17.6327 3.00553 50.462
17.3365 5.274 44.394
16.6047 4.92102 45.657
15.3045 5.38679 44.886
4.13685 5.37809 34.46
14.6086 5.10319 44.003
14.7038 5.40932 44.184
16.457 4.36405 38.576
1.59478 1.08146 6.784
19.665 3.89906 30.314
11.9929 3.98035 32.514
5.25395 5.79546 32.478
11.8234 4.83536 34.154
19.753 5.65889 32.528
5.78576 5.8438 31.312
24.9308 4.63474 43.747
22.6786 4.98828 43.829
19.2379 6.29519 14.332
16.1904 5.27634 45.782
14.4507 0.395239 3.145
14.0425 7.068 9.509
20.9342 0.764156 6.888
4.88869 4.68252 43.781
12.3114 7.20447 1.537
19.3782 2.40762 27.92
10.5294 3.77756 6.943
-0.56352 3.61405 56.231
23.2701 0.884641 1.527
-2.44422 3.55697 56.936
19.6798 4.44395 30.07
16.1499 5.86394 25.415
17.9565 5.13938 20.103
22.7951 5.32206 4.561
9.88229 6.91759 6.8
6.52092 7.41271 6.021
18.909 3.81199 49.637
2.9476 6.76475 13.318
9.69006 6.66874 6.882
2.38811 5.26322 12.382
8.70866 3.02079 32.467
7.04378 6.83222 13.26
4.44097 3.66858 20.148
11.8793 3.85618 45.802
15.9274 2.51267 34.358
13.1256 4.50932 43.802
2.7412 2.08545 6.743
5.83029 5.53567 42.83
-4.08681 4.5168 55.79
-4.42258 4.49363 55.921
2.42661 1.58676 6.759
-5.98986 4.3622 56.742
-6.31884 4.32496 56.89
7.43233 5.16344 35.675
3.14152 0.751948 3.824
7.96753 1.03265 8.031
19.6655 2.45944 25.457
16.4088 5.39902 37.262
18.2721 5.70793 20.17
19.5602 3.90056 27.702
14.2043 6.15721 12.081
10.2198 3.62823 7.484
7.25116 3.23722 56.741
5.9705 4.09406 59.063
21.3977 5.34196 12.217
11.8492 3.70286 44.669
11.9444 4.009 44.883
-4.95819 4.66898 56.645
12.6131 4.3489 43.801
5.9952 5.33765 39.266
9.4338 0.941888 6.924
16.1227 2.97112 33.538
4.69113 3.07799 47.223
3.21426 3.40651 17.047
13.6792 3.14569 55.554
13.3143 3.03907 55.948
19.2337 2.56343 25.619
9.79363 3.14511 57.03
9.47243 3.16366 57.079
8.50302 3.30325 57.064
7.57652 4.00131 33.609
5.32792 3.628 57.31
17.1872 5.58361 34.702
5.77845 4.34838 58.881
6.01134 1.56367 13.344
6.65375 1.52657 13.428
9.29647 5.03906 12.51
-0.0794666 0.308622 0.142
-0.132776 0.49108 0.574
7.13705 1.60355 12.443
0.333961 0.386596 1.71
12.0023 0.22045 0.217
0.194397 0.89175 1.415
12.6942 0.224575 1.007
11.3541 0.341495 1.089
11.0105 0.262526 1.433
0.394234 0.693229 2.959
4.30591 5.96271 25.446
13.324 0.285491 1.701
10.9484 0.319317 2.341
9.26474 0.357268 2.702
1.97111 0.51703 4.144
6.4136 5.76497 20.282
13.981 0.290113 2.506
11.4465 0.941183 1.506
9.44919 0.550317 3.13
0.745574 0.827994 4.623
22.9806 0.18992 0.838
14.6186 0.406826 3.052
13.9907 0.48565 3.035
11.3941 1.19351 1.871
11.0544 0.890859 2.823
9.35217 0.607606 4.119
8.70976 0.644707 4.185
8.38078 0.607461 4.364
4.42633 0.677746 5.201
4.1207 0.807889 4.956
2.14976 0.794023 5.43
0.879521 0.909948 5.431
23.5154 0.447865 0.868
22.151 0.327525 1.72
21.4289 0.170084 2.394
14.7196 0.629017 3.427
13.6763 0.490127 4.116
12.3995 1.12329 2.787
12.1094 1.36503 2.197
9.3376 0.565883 5.215
7.01351 0.780675 5.281
6.66996 0.701706 5.56
4.3818 0.98587 5.396
1.08234 0.921037 6.347
0.512149 2.10321 3.264
21.8501 0.303855 2.811
21.1941 0.369103 2.893
20.5216 0.252888 3.418
15.264 0.579335 4.32
13.5939 0.589139 4.829
12.6333 0.8544 4.37
9.01259 0.808117 5.584
6.4284 0.914798 6.028
5.7335 0.701063 6.782
4.4914 0.830564 6.749
4.16341 0.863188 6.733
3.15808 0.933411 6.766
2.54382 0.984088 6.782
2.22262 1.00264 6.832
1.58021 1.03974 6.865
23.2138 0.857488 1.731
20.7498 0.571106 3.372
15.9986 0.638759 4.816
14.3421 0.620415 5.407
13.9937 0.69526 5.292
13.3164 0.732858 5.406
12.6732 1.20325 4.292
11.0819 1.84089 3.029
8.31389 0.818066 6.686
7.28041 0.874712 6.769
6.95242 0.907336 6.786
6.33816 0.958013 6.819
5.31826 0.986513 7.032
3.32597 0.944997 7.606
3.00576 1.03342 7.491
2.32941 1.14089 7.344
1.71814 1.40117 6.786
0.814978 2.26662 4.604
0.489971 2.50885 4.015
22.9547 0.819247 2.86
21.5319 0.532016 4.139
20.4547 0.463493 4.747
19.7794 0.640831 4.468
19.1136 0.510543 5.107
16.3849 0.773027 5.305
12.9545 0.83585 6.19
12.3978 1.98988 3.222
10.6431 1.45579 5.223
9.88796 0.935421 6.865
9.56676 0.953972 6.914
8.85348 0.922198 7.175
6.83983 0.853032 7.98
4.1664 1.0728 8.095
3.48227 1.12447 8.095
21.6377 0.600393 4.961
21.2806 0.549571 5.224
18.9914 0.763865 5.454
18.2907 0.634074 6.028
16.9933 0.806293 5.996
15.0011 0.764777 6.767
14.3451 0.830025 6.817
13.3329 0.914321 6.882
10.4102 1.29138 6.784
9.78912 1.35613 6.767
8.42168 1.02618 8.113
7.75891 1.10551 8.047
3.88112 1.16072 8.965
3.53078 1.09583 9.212
22.9588 1.60189 2.897
18.7605 0.739201 6.769
18.1045 0.804449 6.836
17.4203 0.85612 6.884
16.416 0.996213 6.867
15.3931 0.815102 7.671
14.7595 0.97787 7.474
14.1007 1.33667 6.687
12.5581 2.44883 4.129
8.04418 1.01758 9.377
7.19931 2.04992 6.819
0.661019 3.23321 5.228
22.6171 1.1595 5.302
21.5563 0.769275 6.779
20.8585 0.849094 6.795
20.5238 0.895792 6.827
18.8371 0.724132 7.877
16.4635 0.897698 8.222
15.8085 1.03282 8.059
14.7751 1.08946 8.239
14.5035 1.6524 6.762
10.9629 2.80699 4.713
1.01335 3.43785 5.681
22.4055 1.02274 6.838
22.4464 1.44147 5.674
21.7641 1.12971 6.79
20.3976 0.869634 8.035
19.4204 0.953433 8.134
15.4941 1.03729 9.266
-3.14058 4.71298 55.335
10.4484 2.50682 6.79
8.22237 2.7342 6.823
1.99481 1.69075 11.383
0.303886 3.18239 45.071
22.3901 1.41431 6.86
21.0306 1.64332 6.729
19.631 1.02032 8.959
19.0491 1.86722 6.794
14.9236 1.21314 10.01
12.7922 3.18627 5.286
10.4331 2.89839 6.779
8.82124 3.07509 6.762
8.15847 3.15441 6.779
4.37519 1.50311 12.372
1.3084 3.54546 7.533
22.4581 1.77674 6.827
20.6024 1.02046 9.566
14.5034 1.14924 11.338
13.2937 2.57812 7.78
10.3196 3.27738 6.795
9.50783 1.72354 11.338
9.14771 1.4631 12.159
7.45825 1.585 12.274
6.7867 1.53865 12.585
6.47907 1.52906 12.717
5.45039 1.43189 13.274
4.45963 1.54384 13.242
4.13843 1.56239 13.291
1.54189 5.21936 45.17
22.836 2.79167 4.851
22.3932 2.12709 6.835
14.5041 3.16189 6.754
13.6944 2.25095 9.51
5.44115 2.74584 32.464
10.5712 3.76299 6.377
10.213 3.6423 6.771
9.58519 3.72112 6.738
8.69356 1.46957 13.201
7.94524 3.88424 6.787
7.06718 1.60454 13.299
6.73918 1.63717 13.316
6.08221 1.63255 13.481
5.09045 1.67462 13.66
2.21817 2.16278 13.086
1.94466 2.58598 11.971
0.863551 5.18709 5.099
22.7691 3.00228 5.164
20.6826 2.7245 6.689
16.0716 1.35054 12.07
14.2567 3.45893 6.887
13.6231 3.6217 6.691
10.2733 3.94893 6.839
8.9896 1.64706 13.531
7.3253 1.57292 14.22
6.65673 1.73618 13.99
6.32974 1.83867 13.793
4.33066 1.81123 14.417
2.10196 2.83532 12.154
1.94835 4.80824 6.79
0.719189 5.84606 4.231
5.1595 2.10692 17.739
22.5479 3.17315 5.624
22.1109 2.42462 7.856
20.7564 3.00298 6.757
19.5292 1.23142 12.055
16.4647 1.47073 12.481
10.3336 4.25556 6.857
9.98522 4.33041 6.742
9.63686 4.40525 6.643
8.68975 1.69326 14.369
7.36322 1.78203 14.533
2.67918 5.09135 6.709
1.28458 4.8177 7.809
-0.12633 7.81485 -0.0959997
4.55028 5.45606 38.515
22.08 2.7046 7.993
21.681 2.16518 9.616
19.5749 1.49633 12.242
18.5957 1.44039 12.766
17.9096 1.35232 13.225
17.2401 1.44571 13.193
16.5909 1.49689 13.307
16.2629 1.52951 13.308
14.0515 2.30177 11.947
5.32183 5.65473 37.022
10.7891 5.32529 4.697
10.4016 4.61799 6.765
9.71071 4.68374 6.797
9.40408 4.74401 6.747
8.41027 1.69723 15.359
8.12705 4.87401 6.748
2.95585 5.38093 6.765
2.43393 3.08218 13.244
0.219041 7.5304 1.549
7.69607 4.5447 29.857
22.582 3.60594 6.28
22.1538 2.98308 8.116
20.9004 1.33769 13.152
19.8951 1.40791 13.3
18.9257 1.5475 13.283
18.2338 1.54338 13.546
17.5575 1.65085 13.464
16.8995 1.57636 13.908
16.2347 1.51594 14.317
14.0138 2.59582 12.087
13.9019 4.55418 6.756
12.6592 5.62013 4.246
10.7048 5.78773 4.411
8.30067 1.85254 15.927
2.52914 3.38831 13.335
1.6962 5.25909 8.398
16.0782 0.8333 4.87
14.0603 2.42744 11.904
20.2047 1.55725 13.847
19.4915 1.52547 14.192
18.8287 1.60479 14.176
18.5298 1.72086 13.995
14.2691 2.85775 12.339
14.1932 4.88547 6.844
14.1623 2.7195 12.118
12.3655 6.58872 2.76
11.4224 7.10531 1.645
11.4675 -0.0374948 -0.0170002
10.6593 6.02599 4.86
8.52105 2.11496 16.194
8.56301 5.55267 6.779
6.53355 1.91963 17.343
5.24195 2.00791 17.491
2.46524 3.80853 13.293
1.82225 7.7312 2.647
1.01242 6.31709 6.747
14.3577 3.68112 13.052
22.66 4.66707 5.532
21.9282 4.3141 6.796
21.3356 2.44964 12.109
19.8981 1.61752 14.93
14.4476 2.63158 14.078
14.4797 2.92463 13.274
13.3974 4.95271 8.075
12.8835 6.16204 4.926
12.1127 7.97602 0.186
11.4489 7.98548 0.383
11.01 7.09721 2.974
10.5934 6.30646 5.254
10.7686 7.81346 1.055
10.4318 7.72042 1.432
8.97754 3.25456 14.111
8.98831 3.51997 13.373
8.17749 2.03599 17.72
7.61994 6.06926 6.78
7.32009 6.11546 6.763
5.60786 2.1844 18.032
4.43804 6.40808 6.764
2.25481 4.24481 13.276
1.80118 5.76077 9.256
22.7418 5.50452 4.347
21.2297 4.82721 6.742
20.1213 1.58639 16.009
16.4551 1.77836 16.813
14.8201 2.29083 16.01
14.57 2.88142 14.468
13.2143 5.83586 6.792
14.767 5.92556 15.25
14.8555 6.24577 15.513
12.4658 7.74737 1.805
11.0655 7.55765 2.756
10.57 6.13907 6.825
10.2089 5.80877 7.874
10.4027 7.63698 2.757
9.33684 3.94829 13.205
9.76806 7.72987 2.741
9.4255 7.72077 2.823
8.95145 6.32984 6.808
8.75296 7.60456 3.38
8.01534 7.33553 4.315
1.92354 6.01061 9.647
1.71528 7.08979 6.76
1.39407 7.10834 6.793
16.4976 6.72556 12.381
23.04 6.32491 2.973
22.6342 5.79957 4.564
22.136 4.67454 7.861
19.97 1.75626 16.637
18.985 1.78427 16.965
16.9394 1.92521 17.309
16.0732 5.87901 6.778
14.5444 7.46619 2.941
13.6208 5.42474 8.845
19.2169 7.27386 6.725
10.7772 7.43597 4.253
10.4444 7.62241 3.843
9.6687 6.64109 6.779
9.07591 4.27347 13.455
9.43129 7.63683 4.105
8.42497 7.63718 4.418
8.09797 7.73968 4.254
7.36814 7.52644 5.008
5.83204 2.22314 20.032
5.18285 2.27431 20.098
1.6426 7.38434 7.01
20.5416 7.54851 4.004
5.91257 4.9335 20.216
23.3382 7.14529 1.591
22.8857 6.28517 4.167
22.0206 4.91379 8.186
21.102 3.22169 13.188
19.8797 1.79948 17.55
18.9015 1.81341 17.862
18.232 1.9068 17.83
17.5546 1.9444 17.994
15.2285 7.41452 3.823
14.4956 4.04255 13.336
13.7218 5.64693 9.186
20.6095 7.40778 4.67
10.5666 7.36908 5.496
9.72862 5.9414 9.663
9.82699 6.96031 6.808
9.24977 4.70428 13.189
9.25463 7.49958 5.546
8.47587 3.35954 17.125
7.21084 7.2771 6.744
6.06699 2.52728 20.095
6.5898 7.34185 6.759
5.39147 2.20146 21.193
4.89635 7.18426 7.695
3.2386 3.64377 17.849
2.60521 7.25882 8.122
1.61826 7.14708 8.662
19.6643 7.28147 6.768
19.084 7.26178 8.096
16.4956 6.58582 13.244
23.3161 7.55094 1.458
23.0046 7.76503 0.999
22.4587 6.23535 5.411
22.6756 7.72778 1.261
21.9468 7.58441 1.935
21.5673 7.43607 2.442
18.428 1.93197 18.697
15.7254 7.46335 4.526
14.3395 4.36625 13.466
14.3891 7.35658 5.281
13.524 5.9852 9.283
10.2374 6.82867 8.086
9.83161 6.30333 9.645
9.94356 7.29409 6.872
9.014 4.83343 13.926
8.21974 3.53091 17.764
8.25591 7.05256 8.053
7.57956 7.16003 7.956
5.76516 2.43374 21.471
5.15786 2.97351 20.191
4.60628 7.426 8.136
3.93274 7.23991 8.809
2.56829 7.11957 9.481
1.86461 6.78017 10.597
14.5216 3.41323 13.357
14.3847 3.12166 13.259
22.9743 7.10855 3.841
23.0288 7.49912 2.792
22.5258 6.52791 5.612
22.0451 5.65421 8.188
21.1187 3.90632 13.322
19.8478 2.00959 18.964
20.2602 7.41275 4.072
18.8289 2.10796 19.112
19.1383 7.14919 5.17
18.3909 6.68462 6.729
17.0653 6.84326 6.795
15.3914 7.07675 6.729
14.7287 7.15607 6.745
14.3657 7.18919 6.763
14.0096 7.20824 6.828
16.3849 0.773027 5.143
9.91424 6.70748 9.567
9.47729 5.95895 11.748
9.55412 6.44705 10.404
9.1064 5.43312 13.324
8.93325 7.01496 9.01
8.22472 3.88026 17.835
7.37697 2.25704 22.526
6.84551 3.21504 20.114
4.08828 2.45762 22.952
3.30485 4.36962 17.934
2.86415 6.79389 11.405
2.54395 6.88231 11.225
7.57704 5.5108 32.639
22.8735 7.38952 4.157
22.5601 7.46387 4.075
21.9685 5.66928 9.241
19.7935 2.12218 19.739
19.1579 2.1452 19.936
18.8153 2.1361 20.083
18.8268 7.36328 5.748
18.4901 7.27024 6.175
17.1685 2.3133 20.15
16.8473 2.33185 20.232
16.8403 7.23782 6.831
15.7961 7.02906 7.782
15.8496 7.34976 6.88
13.4836 7.07596 8.422
-5.0352 3.67772 57.102
9.54353 6.68481 10.785
9.25644 7.13615 9.604
7.83048 3.18704 20.921
5.49147 2.35378 23.857
4.63607 6.57299 12.54
4.0238 6.7634 12.18
3.03982 6.86128 12.212
2.70504 6.90797 12.163
-3.81991 4.61084 55.692
22.725 7.26584 5.587
19.6761 2.22168 20.529
19.9659 6.87185 7.736
18.992 2.27336 20.645
18.6562 2.25018 20.826
18.3553 2.22651 21.039
18.0527 2.56627 20.168
18.3493 7.20236 7.409
17.0697 2.73401 20.12
16.293 7.07789 8.49
15.9708 7.02657 8.721
15.2769 6.88271 9.376
8.9147 6.69376 11.985
7.63761 3.87465 20.104
6.48422 2.38157 24.582
3.60715 3.02354 23.647
3.74344 4.25156 20.236
4.13398 2.72253 34.443
22.0331 7.26172 6.909
21.5562 6.16434 10.124
20.1434 3.62669 17.587
20.2698 7.10513 8.041
18.6067 2.20896 22.032
19.278 7.1472 8.303
18.9374 7.27784 8.057
15.1129 4.20149 17.866
8.58138 5.37071 16.817
8.18814 4.74735 18.654
7.73469 6.76647 13.258
7.38534 6.77145 13.356
6.69144 6.62758 13.93
5.26729 2.31504 26.2
4.6133 2.52003 25.822
3.73448 3.62273 23.066
3.37062 6.5351 15.161
3.04743 6.41391 15.587
20.2308 3.87703 17.92
18.8031 3.24045 20.165
15.5164 3.58076 20.444
15.9153 6.56613 12.129
14.5506 5.94262 14.343
8.99516 6.45501 14.754
7.55463 2.46417 26.17
3.80816 3.39806 24.71
3.88119 4.10983 22.71
3.11531 6.27317 17.018
4.36782 5.40275 37.822
7.77934 4.0124 27.836
21.2504 5.79132 13.258
19.712 2.29106 23.443
19.0784 2.45382 23.247
19.2127 3.54211 20.146
17.2137 6.46378 12.897
16.5733 6.64062 12.683
15.893 4.02266 20.064
16.2287 6.49178 13.241
7.69057 2.68586 26.478
6.94903 5.08646 20.164
