ply
format ascii 1.0
comment Saved by Easy3D (liangliang.nan@gmail.com)
element vertex 179
property float x
property float y
property float z
end_header
12.3978 1.98988 3.222
23.0462 1.85223 3.269
7.36702 1.55834 13.315
5.76879 1.70689 13.398
2.69966 2.60318 14.49
7.52836 5.03628 30.972
16.0782 0.8333 4.87
1.31507 5.97734 7.568
22.66 4.66707 5.532
5.94943 2.12363 18.114
5.26431 2.10543 18.359
10.2318 7.41578 5.463
3.59697 7.21674 7.908
21.5673 7.43607 2.442
23.0288 7.49912 2.792
21.976 7.66786 2.693
22.3445 7.04763 7.385
20.0733 3.12452 19.03
14.2849 6.42162 13.129
14.0039 1.89712 10.212
14.3842 4.56128 13.196
7.65317 3.98624 30.244
7.59969 3.66553 29.9
3.04438 3.25519 32.56
15.1341 6.67509 13.366
0.192003 5.14074 33.432
20.8744 7.36208 5.035
6.5242 5.67954 30.977
4.22158 3.47603 38.714
17.5161 2.67175 37.388
8.82212 5.59091 32.535
5.26454 5.5577 33.748
26.7648 4.35704 32.573
14.0071 5.55901 34.541
-5.33469 4.73025 56.332
3.06077 2.93348 34.247
16.3719 5.25978 35.367
4.1719 2.93164 31.657
17.5937 2.72655 42.792
5.77926 3.91509 43.81
7.69987 4.32102 25.476
7.75336 4.64173 25.804
10.3438 3.01148 45.839
14.4985 6.69811 13
4.40024 3.75302 38.562
8.21746 5.33396 45.821
4.81413 2.39138 28.476
4.99957 2.65429 28.459
14.3097 5.21926 45.739
5.54502 5.6236 31.559
5.78576 5.8438 31.312
22.6786 4.98828 43.829
22.3506 5.0209 43.846
7.64492 5.37007 26.279
18.8038 5.2531 45.782
18.1295 3.05436 52.031
17.8005 3.01712 52.31
-4.74478 4.44231 56.151
28.0759 4.65984 44.225
8.96894 3.63206 55.052
-4.62821 4.7761 56.235
1.01388 4.94734 55.079
0.692679 4.96589 55.162
16.2179 3.27726 57.129
24.0551 3.50111 55.059
26.5762 3.38135 55.173
18.7018 4.96104 55.359
3.9479 3.39607 23.304
12.791 5.05918 5.12
-7.05927 4.34948 57.045
26.5151 3.50801 55.128
25.794 3.42044 55.874
26.3658 3.81763 55.055
23.1079 3.23506 57.058
23.3807 3.74832 57.058
4.41645 2.92816 38.337
18.8011 3.10071 55.453
18.7322 3.17157 54.842
18.9605 3.99296 53.373
18.6862 4.84945 55.227
17.1888 4.71703 57.543
18.4311 5.09069 55.117
16.9838 4.06303 56.04
22.6718 5.00235 43.728
25.6838 4.5122 32.752
19.0498 3.87987 44.706
19.1799 4.18551 44.837
18.7766 5.3094 45.527
18.0421 2.80403 42.914
19.0617 4.71831 43.178
17.3497 1.29041 6.803
13.101 3.7689 55.084
21.3959 2.75627 33.952
11.8715 3.80038 55.864
11.9532 4.13467 56.159
11.7532 3.83002 55.17
18.4254 2.72868 37.809
17.4345 5.28658 42.669
3.20238 5.51718 32.546
10.1695 4.02029 57.125
17.091 5.20761 42.371
19.5097 3.78946 34.632
4.18255 5.643 30.463
16.0856 5.27783 43.845
14.1024 3.4192 43.828
14.2728 5.08001 45.795
14.4165 5.3575 45.796
8.96695 3.49232 55.018
18.2401 2.96893 32.427
8.81282 3.95575 55.071
8.24309 3.6983 55.107
8.24742 4.98411 55.984
16.1985 3.38935 34.932
16.9823 5.43278 35.983
19.6536 4.57011 28.391
6.7417 3.2864 56.095
17.1872 5.58361 34.702
6.78079 4.06855 56.127
12.3231 4.59063 43.831
19.6023 4.89231 27.027
16.3555 5.58148 34.557
11.273 4.46582 43.871
6.753 5.0613 54.265
18.7001 5.82763 27.131
5.03802 4.3729 56.239
5.06155 5.04345 57.142
13.1822 2.59369 34.516
9.4554 4.42181 43.887
21.0204 2.88741 14.441
7.78847 5.14439 19.998
19.7496 1.49384 14.617
19.8312 1.82812 14.863
18.2965 5.94519 24.275
18.4905 5.83061 23.636
3.80477 7.57718 4.415
1.03606 4.5417 6.201
6.91574 4.22037 47.814
7.15648 4.44057 47.569
8.29113 5.10928 45.83
8.48337 5.35813 45.733
3.23404 7.24986 7.522
7.0838 4.73512 47.177
3.58339 7.24489 7.74
1.22162 2.35867 6.82
11.8831 3.6325 33.325
11.9366 3.9532 33.653
6.14447 2.07892 18.143
11.8805 4.42921 33.4
4.02508 4.89049 27.227
22.4362 0.239602 1.497
12.4579 1.79334 3.025
1.57483 5.07912 56.24
4.71746 3.45499 46.533
16.1906 5.7795 22.926
4.31586 6.66141 14.294
4.01982 6.48392 14.736
22.5949 4.51426 5.972
4.48655 6.37944 14.342
5.70261 3.93015 43.818
2.64834 2.92538 14.348
5.03199 1.00457 5.953
2.60164 2.5906 13.97
22.7407 4.93149 5.143
4.54957 3.44341 44.761
10.2522 7.37356 5.455
4.73309 6.5157 17.014
3.63735 6.12597 18.998
3.76971 1.67945 12.029
-0.184033 3.76239 32.578
4.00209 5.72943 27.45
10.8258 4.96137 5.379
12.537 5.87346 3.702
8.05192 6.46844 15.014
10.5607 4.50391 6.275
12.9569 4.93103 5.413
22.7677 7.32114 5.45
9.06603 6.52388 14.371
11.3608 0.327421 -0.059
3.33463 3.51661 43.843
